-1.079545 2.897727 -1.113636 0 255 0
-1.067416 2.865169 -1.112360 0 255 0
-1.055556 2.833333 -1.111111 0 255 0
-1.043956 2.802198 -1.109890 0 255 0
-1.032609 2.771739 -1.108696 0 255 0
-1.021505 2.741935 -1.107527 0 255 0
-1.010638 2.712766 -1.106383 0 255 0
-1.000000 2.684211 -1.105263 0 255 0
-0.989583 2.656250 -1.104167 0 255 0
-0.979381 2.628866 -1.103093 0 255 0
-0.969388 2.602041 -1.102041 0 255 0
-0.959596 2.575758 -1.101010 0 255 0
-0.950000 2.550000 -1.100000 0 255 0
-0.940594 -0.000000 -1.099010 0 255 0
-0.931373 -0.000000 -1.098039 0 255 0
-0.922330 -0.000000 -1.097087 0 255 0
-0.913462 -0.000000 -1.096154 0 255 0
-0.904762 -0.000000 -1.095238 0 255 0
-0.896226 -0.000000 -1.094340 0 255 0
-0.887850 -0.000000 -1.093458 0 255 0
-0.879630 -0.000000 -1.092593 0 255 0
-0.871560 -0.000000 -1.091743 0 255 0
-0.863636 -0.000000 -1.090909 0 255 0
-0.855856 -0.000000 -1.090090 0 255 0
-0.848214 -0.000000 -1.089286 0 255 0
-0.840708 -0.000000 -1.088496 0 255 0
-0.833333 -0.000000 -1.087719 0 255 0
-0.826087 -0.000000 -1.086957 0 255 0
-0.818965 -0.000000 -1.086207 0 255 0
-0.811966 -0.000000 -1.085470 0 255 0
-0.805085 -0.000000 -1.084746 0 255 0
-0.798319 -0.000000 -1.084034 0 255 0
-0.791667 -0.000000 -1.083333 0 255 0
-0.785124 -0.000000 -1.082645 0 255 0
-0.778689 -0.000000 -1.081967 0 255 0
-0.772358 -0.000000 -1.081301 0 255 0
-0.766129 -0.000000 -1.080645 0 255 0
-0.760000 -0.000000 -1.080000 0 255 0
-0.753968 -0.000000 -1.079365 0 255 0
-0.748031 -0.000000 -1.078740 0 255 0
-0.742188 -0.000000 -1.078125 0 255 0
-0.736434 -0.000000 -1.077519 0 255 0
-0.730769 -0.000000 -1.076923 0 255 0
-0.725191 -0.000000 -1.076336 0 255 0
-0.719697 -0.000000 -1.075758 0 255 0
-0.714286 -0.000000 -1.075188 0 255 0
-0.708955 -0.000000 -1.074627 0 255 0
-0.703704 -0.000000 -1.074074 0 255 0
-0.698529 -0.000000 -1.073529 0 255 0
-0.693431 -0.000000 -1.072993 0 255 0
-0.688406 -0.000000 -1.072464 0 255 0
-0.683453 -0.000000 -1.071942 0 255 0
-0.678571 -0.000000 -1.071429 0 255 0
-0.673759 -0.000000 -1.070922 0 255 0
-0.669014 -0.000000 -1.070423 0 255 0
-0.664336 1.783217 -1.069930 0 255 0
-0.659722 1.770833 -1.069444 0 255 0
-0.655172 1.758621 -1.068966 0 255 0
-0.650685 1.746575 -1.068493 0 255 0
-0.646259 1.734694 -1.068027 0 255 0
-0.641892 1.722973 -1.067568 0 255 0
-0.637584 1.711409 -1.067114 0 255 0
-0.633333 1.700000 -1.066667 0 255 0
-0.629139 1.688742 -1.066225 0 255 0
-0.625000 1.677632 -1.065789 0 255 0
-0.620915 1.660131 -1.065359 0 255 0
-0.616883 1.655844 -1.064935 0 255 0
-0.612903 1.645161 -1.064516 0 255 0
-0.608974 1.634615 -1.064103 0 255 0
-0.605096 1.624204 -1.063694 0 255 0
-0.601266 1.613924 -1.063291 0 255 0
-0.597484 1.603774 -1.062893 0 255 0
-0.593750 1.593750 -1.062500 0 255 0
-0.590062 1.583851 -1.062112 0 255 0
-0.586420 1.574074 -1.061728 0 255 0
-0.582822 1.564417 -1.061350 0 255 0
-0.579268 1.554878 -1.060976 0 255 0
-0.575758 1.545455 -1.060606 0 255 0
-0.572289 1.536145 -1.060241 0 255 0
-0.568862 1.526946 -1.059880 0 255 0
-0.565476 1.517857 -1.059524 0 255 0
-0.562130 1.508876 -1.059172 0 255 0
-0.558824 1.500000 -1.058824 0 255 0
-0.555556 1.491228 -1.058480 0 255 0
-0.552326 1.482558 -1.058140 0 255 0
-0.549133 1.473988 -1.057803 0 255 0
-0.545977 1.465517 -1.057471 0 255 0
-0.542857 1.457143 -1.057143 0 255 0
-0.539773 1.448864 -1.056818 0 255 0
-0.536723 1.440678 -1.056497 0 255 0
-0.533708 1.432584 -1.056180 0 255 0
-0.530726 1.424581 -1.055866 0 255 0
-0.527778 1.416667 -1.055556 0 255 0
-0.524862 1.408840 -1.055249 0 255 0
-0.521978 1.401099 -1.054945 0 255 0
-0.519126 1.393443 -1.054645 0 255 0
-0.516304 1.385870 -1.054348 0 255 0
-0.513514 1.378378 -1.054054 0 255 0
-0.510753 1.370968 -1.053763 0 255 0
-0.508021 1.363636 -1.053476 0 255 0
-0.505319 1.356383 -1.053191 0 255 0
-0.502645 1.349206 -1.052910 0 255 0
-0.500000 1.342105 -1.052632 0 255 0
-0.497382 1.335078 -1.052356 0 255 0
-0.494792 1.328125 -1.052083 0 255 0
-0.492228 1.321244 -1.051813 0 255 0
-0.489691 1.314433 -1.051546 0 255 0
-0.487179 1.307692 -1.051282 0 255 0
-0.484694 1.301020 -1.051020 0 255 0
-0.482233 1.294416 -1.050761 0 255 0
-0.479798 1.287879 -1.050505 0 255 0
-0.477387 1.281407 -1.050251 0 255 0
-0.475000 1.275000 -1.050000 0 255 0
-0.472637 1.268657 -1.049751 0 255 0
-0.470297 1.262376 -1.049505 0 255 0
-0.467980 1.256158 -1.049261 0 255 0
-0.465686 1.250000 -1.049020 0 255 0
-0.463415 1.243902 -1.048780 0 255 0
-0.461165 1.237864 -1.048544 0 255 0
-0.458937 1.231884 -1.048309 0 255 0
-0.456731 1.225962 -1.048077 0 255 0
-0.454545 1.220096 -1.047847 0 255 0
-0.452381 1.214286 -1.047619 0 255 0
-0.450237 1.208531 -1.047393 0 255 0
-0.448113 1.202830 -1.047170 0 255 0
-0.446009 1.197183 -1.046948 0 255 0
-0.443925 1.191589 -1.046729 0 255 0
-0.441860 1.186046 -1.046512 0 255 0
-0.439815 1.180556 -1.046296 0 255 0
-0.437788 1.175115 -1.046083 0 255 0
-0.435780 1.169725 -1.045872 0 255 0
-0.433790 1.164384 -1.045662 0 255 0
-0.431818 1.159091 -1.045455 0 255 0
-0.429864 1.153846 -1.045249 0 255 0
-0.427928 1.148649 -1.045045 0 255 0
-0.426009 1.143498 -1.044843 0 255 0
-96.000000 255.000000 -11.000000 0 255 0
-48.000000 127.500000 -6.000000 0 255 0
-32.000000 85.000000 -4.333333 0 255 0
-24.000000 63.750000 -3.500000 0 255 0
-19.200001 51.000000 -3.000000 0 255 0
-16.000000 42.500000 -2.666667 0 255 0
-13.714286 36.428570 -2.428571 0 255 0
-12.000000 31.875000 -2.250000 0 255 0
-10.666667 28.333334 -2.111111 0 255 0
-9.600000 25.500000 -2.000000 0 255 0
-8.727273 23.181818 -1.909091 0 255 0
-8.000000 21.250000 -1.833333 0 255 0
-7.384615 19.615385 -1.769231 0 255 0
-6.857143 18.214285 -1.714286 0 255 0
-6.400000 17.000000 -1.666667 0 255 0
-6.000000 15.937500 -1.625000 0 255 0
-5.647059 15.000000 -1.588235 0 255 0
-5.333333 14.166667 -1.555556 0 255 0
-5.052631 13.421053 -1.526316 0 255 0
-4.800000 12.750000 -1.500000 0 255 0
-4.571429 12.142858 -1.476190 0 255 0
-4.363636 11.590909 -1.454545 0 255 0
-4.173913 11.086957 -1.434783 0 255 0
-4.000000 10.625000 -1.416667 0 255 0
-3.840000 10.200000 -1.400000 0 255 0
-3.692308 9.807693 -1.384615 0 255 0
-3.555556 9.444445 -1.370370 0 255 0
-3.428571 9.107142 -1.357143 0 255 0
-3.310345 8.793103 -1.344828 0 255 0
-3.200000 8.500000 -1.333333 0 255 0
-3.096774 8.225806 -1.322581 0 255 0
-3.000000 7.968750 -1.312500 0 255 0
-2.909091 7.727273 -1.303030 0 255 0
-2.823529 7.500000 -1.294118 0 255 0
-2.742857 7.285714 -1.285714 0 255 0
-2.666667 7.083333 -1.277778 0 255 0
-2.594594 6.891892 -1.270270 0 255 0
-2.526316 6.710526 -1.263158 0 255 0
-2.461539 6.538462 -1.256410 0 255 0
-2.400000 6.375000 -1.250000 0 255 0
-2.341463 6.219512 -1.243902 0 255 0
-2.285714 6.071429 -1.238095 0 255 0
-2.232558 5.930233 -1.232558 0 255 0
-2.181818 5.795455 -1.227273 0 255 0
-2.133333 5.666667 -1.222222 0 255 0
-2.086957 5.543478 -1.217391 0 255 0
-2.042553 5.425532 -1.212766 0 255 0
-2.000000 5.312500 -1.208333 0 255 0
-1.959184 5.204082 -1.204082 0 255 0
-1.920000 5.100000 -1.200000 0 255 0
-1.882353 5.000000 -1.196078 0 255 0
-1.846154 4.903846 -1.192308 0 255 0
-1.811321 4.811321 -1.188679 0 255 0
-1.777778 4.722222 -1.185185 0 255 0
-1.745455 4.636364 -1.181818 0 255 0
-1.714286 4.553571 -1.178571 0 255 0
-1.684211 4.473684 -1.175439 0 255 0
-1.655172 4.396552 -1.172414 0 255 0
-1.627119 4.322034 -1.169492 0 255 0
-1.600000 4.250000 -1.166667 0 255 0
-1.573771 4.180328 -1.163934 0 255 0
-1.548387 4.112903 -1.161290 0 255 0
-1.523810 4.047619 -1.158730 0 255 0
-1.500000 3.984375 -1.156250 0 255 0
-1.476923 3.923077 -1.153846 0 255 0
-1.454545 3.863636 -1.151515 0 255 0
-1.432836 3.805970 -1.149254 0 255 0
-1.411765 3.750000 -1.147059 0 255 0
-1.391304 3.695652 -1.144928 0 255 0
-1.371429 3.642857 -1.142857 0 255 0
-1.352113 3.591549 -1.140845 0 255 0
-1.333333 3.541667 -1.138889 0 255 0
-1.315068 3.493151 -1.136986 0 255 0
-1.297297 3.445946 -1.135135 0 255 0
-1.280000 3.400000 -1.133333 0 255 0
-1.263158 3.355263 -1.131579 0 255 0
-1.246753 3.311688 -1.129870 0 255 0
-1.230769 3.269231 -1.128205 0 255 0
-1.215190 3.227848 -1.126582 0 255 0
-1.200000 3.187500 -1.125000 0 255 0
-1.185185 3.148148 -1.123457 0 255 0
-1.170732 3.109756 -1.121951 0 255 0
-1.156626 3.072289 -1.120482 0 255 0
-1.142857 3.035714 -1.119048 0 255 0
-1.129412 3.000000 -1.117647 0 255 0
-1.116279 2.965116 -1.116279 0 255 0
-1.103448 2.931035 -1.114943 0 255 0
-1.090909 2.897727 -1.113636 0 255 0
-1.078652 2.865169 -1.112360 0 255 0
-1.066667 2.833333 -1.111111 0 255 0
-1.054945 2.802198 -1.109890 0 255 0
-1.043478 2.771739 -1.108696 0 255 0
-1.032258 2.741935 -1.107527 0 255 0
-1.021277 2.712766 -1.106383 0 255 0
-1.010526 2.684211 -1.105263 0 255 0
-1.000000 2.656250 -1.104167 0 255 0
-0.989691 2.628866 -1.103093 0 255 0
-0.979592 2.602041 -1.102041 0 255 0
-0.969697 2.575758 -1.101010 0 255 0
-0.960000 2.550000 -1.100000 0 255 0
-0.950495 -0.000000 -1.099010 0 255 0
-0.941176 -0.000000 -1.098039 0 255 0
-0.932039 -0.000000 -1.097087 0 255 0
-0.923077 -0.000000 -1.096154 0 255 0
-0.914286 -0.000000 -1.095238 0 255 0
-0.905660 -0.000000 -1.094340 0 255 0
-0.897196 -0.000000 -1.093458 0 255 0
-0.888889 -0.000000 -1.092593 0 255 0
-0.880734 -0.000000 -1.091743 0 255 0
-0.872727 -0.000000 -1.090909 0 255 0
-0.864865 -0.000000 -1.090090 0 255 0
-0.857143 -0.000000 -1.089286 0 255 0
-0.849558 -0.000000 -1.088496 0 255 0
-0.842105 -0.000000 -1.087719 0 255 0
-0.834783 -0.000000 -1.086957 0 255 0
-0.827586 -0.000000 -1.086207 0 255 0
-0.820513 -0.000000 -1.085470 0 255 0
-0.813559 -0.000000 -1.084746 0 255 0
-0.806723 -0.000000 -1.084034 0 255 0
-0.800000 -0.000000 -1.083333 0 255 0
-0.793388 -0.000000 -1.082645 0 255 0
-0.786885 -0.000000 -1.081967 0 255 0
-0.780488 -0.000000 -1.081301 0 255 0
-0.774194 -0.000000 -1.080645 0 255 0
-0.768000 -0.000000 -1.080000 0 255 0
-0.761905 -0.000000 -1.079365 0 255 0
-0.755906 -0.000000 -1.078740 0 255 0
-0.750000 -0.000000 -1.078125 0 255 0
-0.744186 -0.000000 -1.077519 0 255 0
-0.738462 -0.000000 -1.076923 0 255 0
-0.732824 -0.000000 -1.076336 0 255 0
-0.727273 -0.000000 -1.075758 0 255 0
-0.721804 -0.000000 -1.075188 0 255 0
-0.716418 -0.000000 -1.074627 0 255 0
-0.711111 -0.000000 -1.074074 0 255 0
-0.705882 -0.000000 -1.073529 0 255 0
-0.700730 -0.000000 -1.072993 0 255 0
-0.695652 -0.000000 -1.072464 0 255 0
-0.690647 -0.000000 -1.071942 0 255 0
-0.685714 -0.000000 -1.071429 0 255 0
-0.680851 -0.000000 -1.070922 0 255 0
-0.676056 -0.000000 -1.070423 0 255 0
-0.671329 1.783217 -1.069930 0 255 0
-0.666667 1.770833 -1.069444 0 255 0
-0.662069 1.758621 -1.068966 0 255 0
-0.657534 1.746575 -1.068493 0 255 0
-0.653061 1.734694 -1.068027 0 255 0
-0.648649 1.722973 -1.067568 0 255 0
-0.644295 1.711409 -1.067114 0 255 0
-0.640000 1.700000 -1.066667 0 255 0
-0.635762 1.688742 -1.066225 0 255 0
-0.631579 1.677632 -1.065789 0 255 0
-0.627451 1.666667 -1.065359 0 255 0
-0.623377 1.655844 -1.064935 0 255 0
-0.619355 1.645161 -1.064516 0 255 0
-0.615385 1.634615 -1.064103 0 255 0
-0.611465 1.624204 -1.063694 0 255 0
-0.607595 1.613924 -1.063291 0 255 0
-0.603774 1.603774 -1.062893 0 255 0
-0.600000 1.593750 -1.062500 0 255 0
-0.596273 1.583851 -1.062112 0 255 0
-0.592593 1.574074 -1.061728 0 255 0
-0.588957 1.564417 -1.061350 0 255 0
-0.585366 1.554878 -1.060976 0 255 0
-0.581818 1.545455 -1.060606 0 255 0
-0.578313 1.536145 -1.060241 0 255 0
-0.574850 1.526946 -1.059880 0 255 0
-0.571429 1.517857 -1.059524 0 255 0
-0.568047 1.508876 -1.059172 0 255 0
-0.564706 1.500000 -1.058824 0 255 0
-0.561404 1.491228 -1.058480 0 255 0
-0.558140 1.482558 -1.058140 0 255 0
-0.554913 1.473988 -1.057803 0 255 0
-0.551724 1.465517 -1.057471 0 255 0
-0.548571 1.457143 -1.057143 0 255 0
-0.545455 1.448864 -1.056818 0 255 0
-0.542373 1.440678 -1.056497 0 255 0
-0.539326 1.432584 -1.056180 0 255 0
-0.536313 1.424581 -1.055866 0 255 0
-0.533333 1.416667 -1.055556 0 255 0
-0.530387 1.408840 -1.055249 0 255 0
-0.527473 1.401099 -1.054945 0 255 0
-0.524590 1.393443 -1.054645 0 255 0
-0.521739 1.385870 -1.054348 0 255 0
-0.518919 1.378378 -1.054054 0 255 0
-0.516129 1.370968 -1.053763 0 255 0
-0.513369 1.363636 -1.053476 0 255 0
-0.510638 1.356383 -1.053191 0 255 0
-0.507937 1.349206 -1.052910 0 255 0
-0.505263 1.342105 -1.052632 0 255 0
-0.502618 1.335078 -1.052356 0 255 0
-0.500000 1.328125 -1.052083 0 255 0
-0.497409 1.321244 -1.051813 0 255 0
-0.494845 1.314433 -1.051546 0 255 0
-0.492308 1.307692 -1.051282 0 255 0
-0.489796 1.301020 -1.051020 0 255 0
-0.487310 1.294416 -1.050761 0 255 0
-0.484848 1.287879 -1.050505 0 255 0
-0.482412 1.281407 -1.050251 0 255 0
-0.480000 1.275000 -1.050000 0 255 0
-0.477612 1.268657 -1.049751 0 255 0
-0.475248 1.262376 -1.049505 0 255 0
-0.472906 1.256158 -1.049261 0 255 0
-0.470588 1.250000 -1.049020 0 255 0
-0.468293 1.243902 -1.048780 0 255 0
-0.466019 1.237864 -1.048544 0 255 0
-0.463768 1.231884 -1.048309 0 255 0
-0.461538 1.225962 -1.048077 0 255 0
-0.459330 1.220096 -1.047847 0 255 0
-0.457143 1.214286 -1.047619 0 255 0
-0.454976 1.208531 -1.047393 0 255 0
-0.452830 1.202830 -1.047170 0 255 0
-0.450704 1.197183 -1.046948 0 255 0
-0.448598 1.191589 -1.046729 0 255 0
-0.446512 1.186046 -1.046512 0 255 0
-0.444444 1.180556 -1.046296 0 255 0
-0.442396 1.175115 -1.046083 0 255 0
-0.440367 1.169725 -1.045872 0 255 0
-0.438356 1.164384 -1.045662 0 255 0
-0.436364 1.159091 -1.045455 0 255 0
-0.434389 1.153846 -1.045249 0 255 0
-0.432432 1.148649 -1.045045 0 255 0
-0.430493 1.143498 -1.044843 0 255 0
-97.000000 255.000000 -11.000000 0 255 0
-48.500000 127.500000 -6.000000 0 255 0
-32.333332 85.000000 -4.333333 0 255 0
-24.250000 63.750000 -3.500000 0 255 0
-19.400000 51.000000 -3.000000 0 255 0
-16.166666 42.500000 -2.666667 0 255 0
-13.857142 36.428570 -2.428571 0 255 0
-12.125000 31.875000 -2.250000 0 255 0
-10.777778 28.333334 -2.111111 0 255 0
-9.700000 25.500000 -2.000000 0 255 0
-8.818182 23.181818 -1.909091 0 255 0
-8.083333 21.250000 -1.833333 0 255 0
-7.461538 19.615385 -1.769231 0 255 0
-6.928571 18.214285 -1.714286 0 255 0
-6.466667 17.000000 -1.666667 0 255 0
-6.062500 15.937500 -1.625000 0 255 0
-5.705883 15.000000 -1.588235 0 255 0
-5.388889 14.166667 -1.555556 0 255 0
-5.105263 13.421053 -1.526316 0 255 0
-4.850000 12.750000 -1.500000 0 255 0
-4.619048 12.142858 -1.476190 0 255 0
-4.409091 11.590909 -1.454545 0 255 0
-4.217391 11.086957 -1.434783 0 255 0
-4.041667 10.625000 -1.416667 0 255 0
-3.880000 10.200000 -1.400000 0 255 0
-3.730769 9.807693 -1.384615 0 255 0
-3.592592 9.444445 -1.370370 0 255 0
-3.464286 9.107142 -1.357143 0 255 0
-3.344828 8.793103 -1.344828 0 255 0
-3.233333 8.500000 -1.333333 0 255 0
-3.129032 8.225806 -1.322581 0 255 0
-3.031250 7.968750 -1.312500 0 255 0
-2.939394 7.727273 -1.303030 0 255 0
-2.852941 7.500000 -1.294118 0 255 0
-2.771429 7.285714 -1.285714 0 255 0
-2.694444 7.083333 -1.277778 0 255 0
-2.621622 6.891892 -1.270270 0 255 0
-2.552632 6.710526 -1.263158 0 255 0
-2.487180 6.538462 -1.256410 0 255 0
-2.425000 6.375000 -1.250000 0 255 0
-2.365854 6.219512 -1.243902 0 255 0
-2.309524 6.071429 -1.238095 0 255 0
-2.255814 5.930233 -1.232558 0 255 0
-2.204545 5.795455 -1.227273 0 255 0
-2.155555 5.666667 -1.222222 0 255 0
-2.108696 5.543478 -1.217391 0 255 0
-2.063830 5.425532 -1.212766 0 255 0
-2.020833 5.312500 -1.208333 0 255 0
-1.979592 5.204082 -1.204082 0 255 0
-1.940000 5.100000 -1.200000 0 255 0
-1.901961 5.000000 -1.196078 0 255 0
-1.865385 4.903846 -1.192308 0 255 0
-1.830189 4.811321 -1.188679 0 255 0
-1.796296 4.722222 -1.185185 0 255 0
-1.763636 4.636364 -1.181818 0 255 0
-1.732143 4.553571 -1.178571 0 255 0
-1.701754 4.473684 -1.175439 0 255 0
-1.672414 4.396552 -1.172414 0 255 0
-1.644068 4.322034 -1.169492 0 255 0
-1.616667 4.250000 -1.166667 0 255 0
-1.590164 4.180328 -1.163934 0 255 0
-1.564516 4.112903 -1.161290 0 255 0
-1.539683 4.047619 -1.158730 0 255 0
-1.515625 3.984375 -1.156250 0 255 0
-1.492308 3.923077 -1.153846 0 255 0
-1.469697 3.863636 -1.151515 0 255 0
-1.447761 3.805970 -1.149254 0 255 0
-1.426471 3.750000 -1.147059 0 255 0
-1.405797 3.695652 -1.144928 0 255 0
-1.385714 3.642857 -1.142857 0 255 0
-1.366197 3.591549 -1.140845 0 255 0
-1.347222 3.541667 -1.138889 0 255 0
-1.328767 3.493151 -1.136986 0 255 0
-1.310811 3.445946 -1.135135 0 255 0
-1.293333 3.400000 -1.133333 0 255 0
-1.276316 3.355263 -1.131579 0 255 0
-1.259740 3.311688 -1.129870 0 255 0
-1.243590 3.269231 -1.128205 0 255 0
-1.227848 3.227848 -1.126582 0 255 0
-1.212500 3.187500 -1.125000 0 255 0
-1.197531 3.148148 -1.123457 0 255 0
-1.182927 3.109756 -1.121951 0 255 0
-1.168675 3.072289 -1.120482 0 255 0
-1.154762 3.035714 -1.119048 0 255 0
-1.141176 3.000000 -1.117647 0 255 0
-1.127907 2.965116 -1.116279 0 255 0
-1.114943 2.931035 -1.114943 0 255 0
-1.102273 2.897727 -1.113636 0 255 0
-1.089888 2.865169 -1.112360 0 255 0
-1.077778 2.833333 -1.111111 0 255 0
-1.065934 2.802198 -1.109890 0 255 0
-1.054348 2.771739 -1.108696 0 255 0
-1.043011 2.741935 -1.107527 0 255 0
-1.031915 2.712766 -1.106383 0 255 0
-1.021053 2.684211 -1.105263 0 255 0
-1.010417 2.656250 -1.104167 0 255 0
-1.000000 2.628866 -1.103093 0 255 0
-0.989796 2.602041 -1.102041 0 255 0
-0.979798 2.575758 -1.101010 0 255 0
-0.970000 2.550000 -1.100000 0 255 0
-0.960396 -0.000000 -1.099010 0 255 0
-0.950980 -0.000000 -1.098039 0 255 0
-0.941748 -0.000000 -1.097087 0 255 0
-0.932692 -0.000000 -1.096154 0 255 0
-0.923810 -0.000000 -1.095238 0 255 0
-0.915094 -0.000000 -1.094340 0 255 0
-0.906542 -0.000000 -1.093458 0 255 0
-0.898148 -0.000000 -1.092593 0 255 0
-0.889908 -0.000000 -1.091743 0 255 0
-0.881818 -0.000000 -1.090909 0 255 0
-0.873874 -0.000000 -1.090090 0 255 0
-0.866071 -0.000000 -1.089286 0 255 0
-0.858407 -0.000000 -1.088496 0 255 0
-0.850877 -0.000000 -1.087719 0 255 0
-0.843478 -0.000000 -1.086957 0 255 0
-0.836207 -0.000000 -1.086207 0 255 0
-0.829060 -0.000000 -1.085470 0 255 0
-0.822034 -0.000000 -1.084746 0 255 0
-0.815126 -0.000000 -1.084034 0 255 0
-0.808333 -0.000000 -1.083333 0 255 0
-0.801653 -0.000000 -1.082645 0 255 0
-0.795082 -0.000000 -1.081967 0 255 0
-0.788618 -0.000000 -1.081301 0 255 0
-0.782258 -0.000000 -1.080645 0 255 0
-0.776000 -0.000000 -1.080000 0 255 0
-0.769841 -0.000000 -1.079365 0 255 0
-0.763780 -0.000000 -1.078740 0 255 0
-0.757812 -0.000000 -1.078125 0 255 0
-0.751938 -0.000000 -1.077519 0 255 0
-0.746154 -0.000000 -1.076923 0 255 0
-0.740458 -0.000000 -1.076336 0 255 0
-0.734848 -0.000000 -1.075758 0 255 0
-0.729323 -0.000000 -1.075188 0 255 0
-0.723881 -0.000000 -1.074627 0 255 0
-0.718518 -0.000000 -1.074074 0 255 0
-0.713235 -0.000000 -1.073529 0 255 0
-0.708029 -0.000000 -1.072993 0 255 0
-0.702899 -0.000000 -1.072464 0 255 0
-0.697842 -0.000000 -1.071942 0 255 0
-0.692857 -0.000000 -1.071429 0 255 0
-0.687943 -0.000000 -1.070922 0 255 0
-0.683099 -0.000000 -1.070423 0 255 0
-0.678322 1.783217 -1.069930 0 255 0
-0.673611 1.770833 -1.069444 0 255 0
-0.668966 1.758621 -1.068966 0 255 0
-0.664384 1.746575 -1.068493 0 255 0
-0.659864 1.734694 -1.068027 0 255 0
-0.655405 1.722973 -1.067568 0 255 0
-0.651007 1.711409 -1.067114 0 255 0
-0.646667 1.700000 -1.066667 0 255 0
-0.642384 1.688742 -1.066225 0 255 0
-0.638158 1.677632 -1.065789 0 255 0
-0.633987 1.666667 -1.065359 0 255 0
-0.629870 1.655844 -1.064935 0 255 0
-0.625806 1.645161 -1.064516 0 255 0
-0.621795 1.634615 -1.064103 0 255 0
-0.617834 1.624204 -1.063694 0 255 0
-0.613924 1.613924 -1.063291 0 255 0
-0.610063 1.603774 -1.062893 0 255 0
-0.606250 1.593750 -1.062500 0 255 0
-0.602484 1.583851 -1.062112 0 255 0
-0.598765 1.574074 -1.061728 0 255 0
-0.595092 1.564417 -1.061350 0 255 0
-0.591463 1.554878 -1.060976 0 255 0
-0.587879 1.545455 -1.060606 0 255 0
-0.584337 1.536145 -1.060241 0 255 0
-0.580838 1.526946 -1.059880 0 255 0
-0.577381 1.517857 -1.059524 0 255 0
-0.573964 1.508876 -1.059172 0 255 0
-0.570588 1.500000 -1.058824 0 255 0
-0.567251 1.491228 -1.058480 0 255 0
-0.563953 1.482558 -1.058140 0 255 0
-0.560694 1.473988 -1.057803 0 255 0
-0.557471 1.465517 -1.057471 0 255 0
-0.554286 1.457143 -1.057143 0 255 0
-0.551136 1.448864 -1.056818 0 255 0
-0.548023 1.440678 -1.056497 0 255 0
-0.544944 1.432584 -1.056180 0 255 0
-0.541899 1.424581 -1.055866 0 255 0
-0.538889 1.416667 -1.055556 0 255 0
-0.535912 1.408840 -1.055249 0 255 0
-0.532967 1.401099 -1.054945 0 255 0
-0.530055 1.393443 -1.054645 0 255 0
-0.527174 1.385870 -1.054348 0 255 0
-0.524324 1.378378 -1.054054 0 255 0
-0.521505 1.370968 -1.053763 0 255 0
-0.518717 1.363636 -1.053476 0 255 0
-0.515957 1.356383 -1.053191 0 255 0
-0.513228 1.349206 -1.052910 0 255 0
-0.510526 1.342105 -1.052632 0 255 0
-0.507853 1.335078 -1.052356 0 255 0
-0.505208 1.328125 -1.052083 0 255 0
-0.502591 1.321244 -1.051813 0 255 0
-0.500000 1.314433 -1.051546 0 255 0
-0.497436 1.307692 -1.051282 0 255 0
-0.494898 1.301020 -1.051020 0 255 0
-0.492386 1.294416 -1.050761 0 255 0
-0.489899 1.287879 -1.050505 0 255 0
-0.487437 1.281407 -1.050251 0 255 0
-0.485000 1.275000 -1.050000 0 255 0
-0.482587 1.268657 -1.049751 0 255 0
-0.480198 1.262376 -1.049505 0 255 0
-0.477833 1.256158 -1.049261 0 255 0
-0.475490 1.250000 -1.049020 0 255 0
-0.473171 1.243902 -1.048780 0 255 0
-0.470874 1.237864 -1.048544 0 255 0
-0.468599 1.231884 -1.048309 0 255 0
-0.466346 1.225962 -1.048077 0 255 0
-0.464115 1.220096 -1.047847 0 255 0
-0.461905 1.214286 -1.047619 0 255 0
-0.459716 1.208531 -1.047393 0 255 0
-0.457547 1.202830 -1.047170 0 255 0
-0.455399 1.197183 -1.046948 0 255 0
-0.453271 1.191589 -1.046729 0 255 0
-0.451163 1.186046 -1.046512 0 255 0
-0.449074 1.180556 -1.046296 0 255 0
-0.447005 1.175115 -1.046083 0 255 0
-0.444954 1.169725 -1.045872 0 255 0
-0.442922 1.164384 -1.045662 0 255 0
-0.440909 1.159091 -1.045455 0 255 0
-0.438914 1.153846 -1.045249 0 255 0
-0.436937 1.148649 -1.045045 0 255 0
-0.434978 1.143498 -1.044843 0 255 0
-98.000000 255.000000 -11.000000 0 255 0
-49.000000 127.500000 -6.000000 0 255 0
-32.666668 85.000000 -4.333333 0 255 0
-24.500000 63.750000 -3.500000 0 255 0
-19.600000 51.000000 -3.000000 0 255 0
-16.333334 42.500000 -2.666667 0 255 0
-14.000000 36.428570 -2.428571 0 255 0
-12.250000 31.875000 -2.250000 0 255 0
-10.888889 28.333334 -2.111111 0 255 0
-9.800000 25.500000 -2.000000 0 255 0
-8.909091 23.181818 -1.909091 0 255 0
-8.166667 21.250000 -1.833333 0 255 0
-7.538462 19.615385 -1.769231 0 255 0
-7.000000 18.214285 -1.714286 0 255 0
-6.533333 17.000000 -1.666667 0 255 0
-6.125000 15.937500 -1.625000 0 255 0
-5.764706 15.000000 -1.588235 0 255 0
-5.444445 14.166667 -1.555556 0 255 0
-5.157895 13.421053 -1.526316 0 255 0
-4.900000 12.750000 -1.500000 0 255 0
-4.666667 12.142858 -1.476190 0 255 0
-4.454545 11.590909 -1.454545 0 255 0
-4.260870 11.086957 -1.434783 0 255 0
-4.083333 10.625000 -1.416667 0 255 0
-3.920000 10.200000 -1.400000 0 255 0
-3.769231 9.807693 -1.384615 0 255 0
-3.629630 9.444445 -1.370370 0 255 0
-3.500000 9.107142 -1.357143 0 255 0
-3.379310 8.793103 -1.344828 0 255 0
-3.266667 8.500000 -1.333333 0 255 0
-3.161290 8.225806 -1.322581 0 255 0
-3.062500 7.968750 -1.312500 0 255 0
-2.969697 7.727273 -1.303030 0 255 0
-2.882353 7.500000 -1.294118 0 255 0
-2.800000 7.285714 -1.285714 0 255 0
-2.722222 7.083333 -1.277778 0 255 0
-2.648649 6.891892 -1.270270 0 255 0
-2.578947 6.710526 -1.263158 0 255 0
-2.512820 6.538462 -1.256410 0 255 0
-2.450000 6.375000 -1.250000 0 255 0
-2.390244 6.219512 -1.243902 0 255 0
-2.333333 6.071429 -1.238095 0 255 0
-2.279070 5.930233 -1.232558 0 255 0
-2.227273 5.795455 -1.227273 0 255 0
-2.177778 5.666667 -1.222222 0 255 0
-2.130435 5.543478 -1.217391 0 255 0
-2.085106 5.425532 -1.212766 0 255 0
-2.041667 5.312500 -1.208333 0 255 0
-2.000000 5.204082 -1.204082 0 255 0
-1.960000 5.100000 -1.200000 0 255 0
-1.921569 5.000000 -1.196078 0 255 0
-1.884615 4.903846 -1.192308 0 255 0
-1.849057 4.811321 -1.188679 0 255 0
-1.814815 4.722222 -1.185185 0 255 0
-1.781818 4.636364 -1.181818 0 255 0
-1.750000 4.553571 -1.178571 0 255 0
-1.719298 4.473684 -1.175439 0 255 0
-1.689655 4.396552 -1.172414 0 255 0
-1.661017 4.322034 -1.169492 0 255 0
-1.633333 4.250000 -1.166667 0 255 0
-1.606557 4.180328 -1.163934 0 255 0
-1.580645 4.112903 -1.161290 0 255 0
-1.555556 4.047619 -1.158730 0 255 0
-1.531250 3.984375 -1.156250 0 255 0
-1.507692 3.923077 -1.153846 0 255 0
-1.484848 3.863636 -1.151515 0 255 0
-1.462687 3.805970 -1.149254 0 255 0
-1.441176 3.750000 -1.147059 0 255 0
-1.420290 3.695652 -1.144928 0 255 0
-1.400000 3.642857 -1.142857 0 255 0
-1.380282 3.591549 -1.140845 0 255 0
-1.361111 3.541667 -1.138889 0 255 0
-1.342466 3.493151 -1.136986 0 255 0
-1.324324 3.445946 -1.135135 0 255 0
-1.306667 3.400000 -1.133333 0 255 0
-1.289474 3.355263 -1.131579 0 255 0
-1.272727 3.311688 -1.129870 0 255 0
-1.256410 3.269231 -1.128205 0 255 0
-1.240506 3.227848 -1.126582 0 255 0
-1.225000 3.187500 -1.125000 0 255 0
-1.209877 3.148148 -1.123457 0 255 0
-1.195122 3.109756 -1.121951 0 255 0
-1.180723 3.072289 -1.120482 0 255 0
-1.166667 3.035714 -1.119048 0 255 0
-1.152941 3.000000 -1.117647 0 255 0
-1.139535 2.965116 -1.116279 0 255 0
-1.126437 2.931035 -1.114943 0 255 0
-1.113636 2.897727 -1.113636 0 255 0
-1.101124 2.865169 -1.112360 0 255 0
-1.088889 2.833333 -1.111111 0 255 0
-1.076923 2.802198 -1.109890 0 255 0
-1.065217 2.771739 -1.108696 0 255 0
-1.053763 2.741935 -1.107527 0 255 0
-1.042553 2.712766 -1.106383 0 255 0
-1.031579 2.684211 -1.105263 0 255 0
-1.020833 2.656250 -1.104167 0 255 0
-1.010309 2.628866 -1.103093 0 255 0
-1.000000 2.602041 -1.102041 0 255 0
-0.989899 2.575758 -1.101010 0 255 0
-0.980000 2.550000 -1.100000 0 255 0
-0.970297 -0.000000 -1.099010 0 255 0
-0.960784 -0.000000 -1.098039 0 255 0
-0.951456 -0.000000 -1.097087 0 255 0
-0.942308 -0.000000 -1.096154 0 255 0
-0.933333 -0.000000 -1.095238 0 255 0
-0.924528 -0.000000 -1.094340 0 255 0
-0.915888 -0.000000 -1.093458 0 255 0
-0.907407 -0.000000 -1.092593 0 255 0
-0.899083 -0.000000 -1.091743 0 255 0
-0.890909 -0.000000 -1.090909 0 255 0
-0.882883 -0.000000 -1.090090 0 255 0
-0.875000 -0.000000 -1.089286 0 255 0
-0.867257 -0.000000 -1.088496 0 255 0
-0.859649 -0.000000 -1.087719 0 255 0
-0.852174 -0.000000 -1.086957 0 255 0
-0.844828 -0.000000 -1.086207 0 255 0
-0.837607 -0.000000 -1.085470 0 255 0
-0.830508 -0.000000 -1.084746 0 255 0
-0.823529 -0.000000 -1.084034 0 255 0
-0.816667 -0.000000 -1.083333 0 255 0
-0.809917 -0.000000 -1.082645 0 255 0
-0.803279 -0.000000 -1.081967 0 255 0
-0.796748 -0.000000 -1.081301 0 255 0
-0.790323 -0.000000 -1.080645 0 255 0
-0.784000 -0.000000 -1.080000 0 255 0
-0.777778 -0.000000 -1.079365 0 255 0
-0.771654 -0.000000 -1.078740 0 255 0
-0.765625 -0.000000 -1.078125 0 255 0
-0.759690 -0.000000 -1.077519 0 255 0
-0.753846 -0.000000 -1.076923 0 255 0
-0.748092 -0.000000 -1.076336 0 255 0
-0.742424 -0.000000 -1.075758 0 255 0
-0.736842 -0.000000 -1.075188 0 255 0
-0.731343 -0.000000 -1.074627 0 255 0
-0.725926 -0.000000 -1.074074 0 255 0
-0.720588 -0.000000 -1.073529 0 255 0
-0.715328 -0.000000 -1.072993 0 255 0
-0.710145 -0.000000 -1.072464 0 255 0
-0.705036 -0.000000 -1.071942 0 255 0
-0.700000 -0.000000 -1.071429 0 255 0
-0.695035 -0.000000 -1.070922 0 255 0
-0.690141 -0.000000 -1.070423 0 255 0
-0.685315 1.783217 -1.069930 0 255 0
-0.680556 1.770833 -1.069444 0 255 0
-0.675862 1.758621 -1.068966 0 255 0
-0.671233 1.746575 -1.068493 0 255 0
-0.666667 1.734694 -1.068027 0 255 0
-0.662162 1.722973 -1.067568 0 255 0
-0.657718 1.711409 -1.067114 0 255 0
-0.653333 1.700000 -1.066667 0 255 0
-0.649007 1.688742 -1.066225 0 255 0
-0.644737 1.677632 -1.065789 0 255 0
-0.640523 1.666667 -1.065359 0 255 0
-0.636364 1.655844 -1.064935 0 255 0
-0.632258 1.645161 -1.064516 0 255 0
-0.628205 1.634615 -1.064103 0 255 0
-0.624204 1.624204 -1.063694 0 255 0
-0.620253 1.613924 -1.063291 0 255 0
-0.616352 1.603774 -1.062893 0 255 0
-0.612500 1.593750 -1.062500 0 255 0
-0.608696 1.583851 -1.062112 0 255 0
-0.604938 1.574074 -1.061728 0 255 0
-0.601227 1.564417 -1.061350 0 255 0
-0.597561 1.554878 -1.060976 0 255 0
-0.593939 1.545455 -1.060606 0 255 0
-0.590361 1.536145 -1.060241 0 255 0
-0.586826 1.526946 -1.059880 0 255 0
-0.583333 1.517857 -1.059524 0 255 0
-0.579882 1.508876 -1.059172 0 255 0
-0.576471 1.500000 -1.058824 0 255 0
-0.573099 1.491228 -1.058480 0 255 0
-0.569767 1.482558 -1.058140 0 255 0
-0.566474 1.473988 -1.057803 0 255 0
-0.563218 1.465517 -1.057471 0 255 0
-0.560000 1.457143 -1.057143 0 255 0
-0.556818 1.448864 -1.056818 0 255 0
-0.553672 1.440678 -1.056497 0 255 0
-0.550562 1.432584 -1.056180 0 255 0
-0.547486 1.424581 -1.055866 0 255 0
-0.544444 1.416667 -1.055556 0 255 0
-0.541436 1.408840 -1.055249 0 255 0
-0.538462 1.401099 -1.054945 0 255 0
-0.535519 1.393443 -1.054645 0 255 0
-0.532609 1.385870 -1.054348 0 255 0
-0.529730 1.378378 -1.054054 0 255 0
-0.526882 1.370968 -1.053763 0 255 0
-0.524064 1.363636 -1.053476 0 255 0
-0.521277 1.356383 -1.053191 0 255 0
-0.518519 1.349206 -1.052910 0 255 0
-0.515789 1.342105 -1.052632 0 255 0
-0.513089 1.335078 -1.052356 0 255 0
-0.510417 1.328125 -1.052083 0 255 0
-0.507772 1.321244 -1.051813 0 255 0
-0.505155 1.314433 -1.051546 0 255 0
-0.502564 1.307692 -1.051282 0 255 0
-0.500000 1.301020 -1.051020 0 255 0
-0.497462 1.294416 -1.050761 0 255 0
-0.494949 1.287879 -1.050505 0 255 0
-0.492462 1.281407 -1.050251 0 255 0
-0.490000 1.275000 -1.050000 0 255 0
-0.487562 1.268657 -1.049751 0 255 0
-0.485149 1.262376 -1.049505 0 255 0
-0.482759 1.256158 -1.049261 0 255 0
-0.480392 1.250000 -1.049020 0 255 0
-0.478049 1.243902 -1.048780 0 255 0
-0.475728 1.237864 -1.048544 0 255 0
-0.473430 1.231884 -1.048309 0 255 0
-0.471154 1.225962 -1.048077 0 255 0
-0.468900 1.220096 -1.047847 0 255 0
-0.466667 1.214286 -1.047619 0 255 0
-0.464455 1.208531 -1.047393 0 255 0
-0.462264 1.202830 -1.047170 0 255 0
-0.460094 1.197183 -1.046948 0 255 0
-0.457944 1.191589 -1.046729 0 255 0
-0.455814 1.186046 -1.046512 0 255 0
-0.453704 1.180556 -1.046296 0 255 0
-0.451613 1.175115 -1.046083 0 255 0
-0.449541 1.169725 -1.045872 0 255 0
-0.447489 1.164384 -1.045662 0 255 0
-0.445455 1.159091 -1.045455 0 255 0
-0.443439 1.153846 -1.045249 0 255 0
-0.441441 1.148649 -1.045045 0 255 0
-0.439462 1.143498 -1.044843 0 255 0
-99.000000 255.000000 -11.000000 0 255 0
-49.500000 127.500000 -6.000000 0 255 0
-33.000000 85.000000 -4.333333 0 255 0
-24.750000 63.750000 -3.500000 0 255 0
-19.799999 51.000000 -3.000000 0 255 0
-16.500000 42.500000 -2.666667 0 255 0
-14.142858 36.428570 -2.428571 0 255 0
-12.375000 31.875000 -2.250000 0 255 0
-11.000000 28.333334 -2.111111 0 255 0
-9.900000 25.500000 -2.000000 0 255 0
-9.000000 23.181818 -1.909091 0 255 0
-8.250000 21.250000 -1.833333 0 255 0
-7.615385 19.615385 -1.769231 0 255 0
-7.071429 18.214285 -1.714286 0 255 0
-6.600000 17.000000 -1.666667 0 255 0
-6.187500 15.937500 -1.625000 0 255 0
-5.823529 15.000000 -1.588235 0 255 0
-5.500000 14.166667 -1.555556 0 255 0
-5.210526 13.421053 -1.526316 0 255 0
-4.950000 12.750000 -1.500000 0 255 0
-4.714286 12.142858 -1.476190 0 255 0
-4.500000 11.590909 -1.454545 0 255 0
-4.304348 11.086957 -1.434783 0 255 0
-4.125000 10.625000 -1.416667 0 255 0
-3.960000 10.200000 -1.400000 0 255 0
-3.807692 9.807693 -1.384615 0 255 0
-3.666667 9.444445 -1.370370 0 255 0
-3.535714 9.107142 -1.357143 0 255 0
-3.413793 8.793103 -1.344828 0 255 0
-3.300000 8.500000 -1.333333 0 255 0
-3.193548 8.225806 -1.322581 0 255 0
-3.093750 7.968750 -1.312500 0 255 0
-3.000000 7.727273 -1.303030 0 255 0
-2.911765 7.500000 -1.294118 0 255 0
-2.828571 7.285714 -1.285714 0 255 0
-2.750000 7.083333 -1.277778 0 255 0
-2.675676 6.891892 -1.270270 0 255 0
-2.605263 6.710526 -1.263158 0 255 0
-2.538461 6.538462 -1.256410 0 255 0
-2.475000 6.375000 -1.250000 0 255 0
-2.414634 6.219512 -1.243902 0 255 0
-2.357143 6.071429 -1.238095 0 255 0
-2.302325 5.930233 -1.232558 0 255 0
-2.250000 5.795455 -1.227273 0 255 0
-2.200000 5.666667 -1.222222 0 255 0
-2.152174 5.543478 -1.217391 0 255 0
-2.106383 5.425532 -1.212766 0 255 0
-2.062500 5.312500 -1.208333 0 255 0
-2.020408 5.204082 -1.204082 0 255 0
-1.980000 5.100000 -1.200000 0 255 0
-1.941176 5.000000 -1.196078 0 255 0
-1.903846 4.903846 -1.192308 0 255 0
-1.867925 4.811321 -1.188679 0 255 0
-1.833333 4.722222 -1.185185 0 255 0
-1.800000 4.636364 -1.181818 0 255 0
-1.767857 4.553571 -1.178571 0 255 0
-1.736842 4.473684 -1.175439 0 255 0
-1.706897 4.396552 -1.172414 0 255 0
-1.677966 4.322034 -1.169492 0 255 0
-1.650000 4.250000 -1.166667 0 255 0
-1.622951 4.180328 -1.163934 0 255 0
-1.596774 4.112903 -1.161290 0 255 0
-1.571429 4.047619 -1.158730 0 255 0
-1.546875 3.984375 -1.156250 0 255 0
-1.523077 3.923077 -1.153846 0 255 0
-1.500000 3.863636 -1.151515 0 255 0
-1.477612 3.805970 -1.149254 0 255 0
-1.455882 3.750000 -1.147059 0 255 0
-1.434783 3.695652 -1.144928 0 255 0
-1.414286 3.642857 -1.142857 0 255 0
-1.394366 3.591549 -1.140845 0 255 0
-1.375000 3.541667 -1.138889 0 255 0
-1.356164 3.493151 -1.136986 0 255 0
-1.337838 3.445946 -1.135135 0 255 0
-1.320000 3.400000 -1.133333 0 255 0
-1.302632 3.355263 -1.131579 0 255 0
-1.285714 3.311688 -1.129870 0 255 0
-1.269231 3.269231 -1.128205 0 255 0
-1.253165 3.227848 -1.126582 0 255 0
-1.237500 3.187500 -1.125000 0 255 0
-1.222222 3.148148 -1.123457 0 255 0
-1.207317 3.109756 -1.121951 0 255 0
-1.192771 3.072289 -1.120482 0 255 0
-1.178571 3.035714 -1.119048 0 255 0
-1.164706 3.000000 -1.117647 0 255 0
-1.151163 2.965116 -1.116279 0 255 0
-1.137931 2.931035 -1.114943 0 255 0
-1.125000 2.897727 -1.113636 0 255 0
-1.112360 2.865169 -1.112360 0 255 0
-1.100000 2.833333 -1.111111 0 255 0
-1.087912 2.802198 -1.109890 0 255 0
-1.076087 2.771739 -1.108696 0 255 0
-1.064516 2.741935 -1.107527 0 255 0
-1.053192 2.712766 -1.106383 0 255 0
-1.042105 2.684211 -1.105263 0 255 0
-1.031250 2.656250 -1.104167 0 255 0
-1.020619 2.628866 -1.103093 0 255 0
-1.010204 2.602041 -1.102041 0 255 0
-1.000000 2.575758 -1.101010 0 255 0
-0.990000 2.550000 -1.100000 0 255 0
-0.980198 -0.000000 -1.099010 0 255 0
-0.970588 -0.000000 -1.098039 0 255 0
-0.961165 -0.000000 -1.097087 0 255 0
-0.951923 -0.000000 -1.096154 0 255 0
-0.942857 -0.000000 -1.095238 0 255 0
-0.933962 -0.000000 -1.094340 0 255 0
-0.925234 -0.000000 -1.093458 0 255 0
-0.916667 -0.000000 -1.092593 0 255 0
-0.908257 -0.000000 -1.091743 0 255 0
-0.900000 -0.000000 -1.090909 0 255 0
-0.891892 -0.000000 -1.090090 0 255 0
-0.883929 -0.000000 -1.089286 0 255 0
-0.876106 -0.000000 -1.088496 0 255 0
-0.868421 -0.000000 -1.087719 0 255 0
-0.860870 -0.000000 -1.086957 0 255 0
-0.853448 -0.000000 -1.086207 0 255 0
-0.846154 -0.000000 -1.085470 0 255 0
-0.838983 -0.000000 -1.084746 0 255 0
-0.831933 -0.000000 -1.084034 0 255 0
-0.825000 -0.000000 -1.083333 0 255 0
-0.818182 -0.000000 -1.082645 0 255 0
-0.811475 -0.000000 -1.081967 0 255 0
-0.804878 -0.000000 -1.081301 0 255 0
-0.798387 -0.000000 -1.080645 0 255 0
-0.792000 -0.000000 -1.080000 0 255 0
-0.785714 -0.000000 -1.079365 0 255 0
-0.779528 -0.000000 -1.078740 0 255 0
-0.773438 -0.000000 -1.078125 0 255 0
-0.767442 -0.000000 -1.077519 0 255 0
-0.761538 -0.000000 -1.076923 0 255 0
-0.755725 -0.000000 -1.076336 0 255 0
-0.750000 -0.000000 -1.075758 0 255 0
-0.744361 -0.000000 -1.075188 0 255 0
-0.738806 -0.000000 -1.074627 0 255 0
-0.733333 -0.000000 -1.074074 0 255 0
-0.727941 -0.000000 -1.073529 0 255 0
-0.722628 -0.000000 -1.072993 0 255 0
-0.717391 -0.000000 -1.072464 0 255 0
-0.712230 -0.000000 -1.071942 0 255 0
-0.707143 -0.000000 -1.071429 0 255 0
-0.702128 -0.000000 -1.070922 0 255 0
-0.697183 -0.000000 -1.070423 0 255 0
-0.692308 1.783217 -1.069930 0 255 0
-0.687500 1.770833 -1.069444 0 255 0
-0.682759 1.758621 -1.068966 0 255 0
-0.678082 1.746575 -1.068493 0 255 0
-0.673469 1.734694 -1.068027 0 255 0
-0.668919 1.722973 -1.067568 0 255 0
-0.664430 1.711409 -1.067114 0 255 0
-0.660000 1.700000 -1.066667 0 255 0
-0.655629 1.688742 -1.066225 0 255 0
-0.651316 1.677632 -1.065789 0 255 0
-0.647059 1.666667 -1.065359 0 255 0
-0.642857 1.655844 -1.064935 0 255 0
-0.638710 1.645161 -1.064516 0 255 0
-0.634615 1.634615 -1.064103 0 255 0
-0.630573 1.624204 -1.063694 0 255 0
-0.626582 1.613924 -1.063291 0 255 0
-0.622642 1.603774 -1.062893 0 255 0
-0.618750 1.593750 -1.062500 0 255 0
-0.614907 1.583851 -1.062112 0 255 0
-0.611111 1.574074 -1.061728 0 255 0
-0.607362 1.564417 -1.061350 0 255 0
-0.603659 1.554878 -1.060976 0 255 0
-0.600000 1.545455 -1.060606 0 255 0
-0.596386 1.536145 -1.060241 0 255 0
-0.592814 1.526946 -1.059880 0 255 0
-0.589286 1.517857 -1.059524 0 255 0
-0.585799 1.508876 -1.059172 0 255 0
-0.582353 1.500000 -1.058824 0 255 0
-0.578947 1.491228 -1.058480 0 255 0
-0.575581 1.482558 -1.058140 0 255 0
-0.572254 1.473988 -1.057803 0 255 0
-0.568965 1.465517 -1.057471 0 255 0
-0.565714 1.457143 -1.057143 0 255 0
-0.562500 1.448864 -1.056818 0 255 0
-0.559322 1.440678 -1.056497 0 255 0
-0.556180 1.432584 -1.056180 0 255 0
-0.553073 1.424581 -1.055866 0 255 0
-0.550000 1.416667 -1.055556 0 255 0
-0.546961 1.408840 -1.055249 0 255 0
-0.543956 1.401099 -1.054945 0 255 0
-0.540984 1.393443 -1.054645 0 255 0
-0.538043 1.385870 -1.054348 0 255 0
-0.535135 1.378378 -1.054054 0 255 0
-0.532258 1.370968 -1.053763 0 255 0
-0.529412 1.363636 -1.053476 0 255 0
-0.526596 1.356383 -1.053191 0 255 0
-0.523810 1.349206 -1.052910 0 255 0
-0.521053 1.342105 -1.052632 0 255 0
-0.518325 1.335078 -1.052356 0 255 0
-0.515625 1.328125 -1.052083 0 255 0
-0.512953 1.321244 -1.051813 0 255 0
-0.510309 1.314433 -1.051546 0 255 0
-0.507692 1.307692 -1.051282 0 255 0
-0.505102 1.301020 -1.051020 0 255 0
-0.502538 1.294416 -1.050761 0 255 0
-0.500000 1.287879 -1.050505 0 255 0
-0.497487 1.281407 -1.050251 0 255 0
-0.495000 1.275000 -1.050000 0 255 0
-0.492537 1.268657 -1.049751 0 255 0
-0.490099 1.262376 -1.049505 0 255 0
-0.487685 1.256158 -1.049261 0 255 0
-0.485294 1.250000 -1.049020 0 255 0
-0.482927 1.243902 -1.048780 0 255 0
-0.480583 1.237864 -1.048544 0 255 0
-0.478261 1.231884 -1.048309 0 255 0
-0.475962 1.225962 -1.048077 0 255 0
-0.473684 1.220096 -1.047847 0 255 0
-0.471429 1.214286 -1.047619 0 255 0
-0.469194 1.208531 -1.047393 0 255 0
-0.466981 1.202830 -1.047170 0 255 0
-0.464789 1.197183 -1.046948 0 255 0
-0.462617 1.191589 -1.046729 0 255 0
-0.460465 1.186046 -1.046512 0 255 0
-0.458333 1.180556 -1.046296 0 255 0
-0.456221 1.175115 -1.046083 0 255 0
-0.454128 1.169725 -1.045872 0 255 0
-0.452055 1.164384 -1.045662 0 255 0
-0.450000 1.159091 -1.045455 0 255 0
-0.447964 1.153846 -1.045249 0 255 0
-0.445946 1.148649 -1.045045 0 255 0
-0.443946 1.143498 -1.044843 0 255 0
-100.000000 255.000000 -11.000000 0 255 0
-50.000000 127.500000 -6.000000 0 255 0
-33.333332 85.000000 -4.333333 0 255 0
-25.000000 63.750000 -3.500000 0 255 0
-20.000000 51.000000 -3.000000 0 255 0
-16.666666 42.500000 -2.666667 0 255 0
-14.285714 36.428570 -2.428571 0 255 0
-12.500000 31.875000 -2.250000 0 255 0
-11.111111 28.333334 -2.111111 0 255 0
-10.000000 25.500000 -2.000000 0 255 0
-9.090909 23.181818 -1.909091 0 255 0
-8.333333 21.250000 -1.833333 0 255 0
-7.692307 19.615385 -1.769231 0 255 0
-7.142857 18.214285 -1.714286 0 255 0
-6.666667 17.000000 -1.666667 0 255 0
-6.250000 15.937500 -1.625000 0 255 0
-5.882353 15.000000 -1.588235 0 255 0
-5.555555 14.166667 -1.555556 0 255 0
-5.263158 13.421053 -1.526316 0 255 0
-5.000000 12.750000 -1.500000 0 255 0
-4.761905 12.142858 -1.476190 0 255 0
-4.545455 11.590909 -1.454545 0 255 0
-4.347826 11.086957 -1.434783 0 255 0
-4.166667 10.625000 -1.416667 0 255 0
-4.000000 10.200000 -1.400000 0 255 0
-3.846154 9.807693 -1.384615 0 255 0
-3.703704 9.444445 -1.370370 0 255 0
-3.571429 9.107142 -1.357143 0 255 0
-3.448276 8.793103 -1.344828 0 255 0
-3.333333 8.500000 -1.333333 0 255 0
-3.225806 8.225806 -1.322581 0 255 0
-3.125000 7.968750 -1.312500 0 255 0
-3.030303 7.727273 -1.303030 0 255 0
-2.941176 7.500000 -1.294118 0 255 0
-2.857143 7.285714 -1.285714 0 255 0
-2.777778 7.083333 -1.277778 0 255 0
-2.702703 6.891892 -1.270270 0 255 0
-2.631579 6.710526 -1.263158 0 255 0
-2.564103 6.538462 -1.256410 0 255 0
-2.500000 6.375000 -1.250000 0 255 0
-2.439024 6.219512 -1.243902 0 255 0
-2.380952 6.071429 -1.238095 0 255 0
-2.325581 5.930233 -1.232558 0 255 0
-2.272727 5.795455 -1.227273 0 255 0
-2.222222 5.666667 -1.222222 0 255 0
-2.173913 5.543478 -1.217391 0 255 0
-2.127660 5.425532 -1.212766 0 255 0
-2.083333 5.312500 -1.208333 0 255 0
-2.040816 5.204082 -1.204082 0 255 0
-2.000000 5.100000 -1.200000 0 255 0
-1.960784 5.000000 -1.196078 0 255 0
-1.923077 4.903846 -1.192308 0 255 0
-1.886792 4.811321 -1.188679 0 255 0
-1.851852 4.722222 -1.185185 0 255 0
-1.818182 4.636364 -1.181818 0 255 0
-1.785714 4.553571 -1.178571 0 255 0
-1.754386 4.473684 -1.175439 0 255 0
-1.724138 4.396552 -1.172414 0 255 0
-1.694915 4.322034 -1.169492 0 255 0
-1.666667 4.250000 -1.166667 0 255 0
-1.639344 4.180328 -1.163934 0 255 0
-1.612903 4.112903 -1.161290 0 255 0
-1.587302 4.047619 -1.158730 0 255 0
-1.562500 3.984375 -1.156250 0 255 0
-1.538462 3.923077 -1.153846 0 255 0
-1.515152 3.863636 -1.151515 0 255 0
-1.492537 3.805970 -1.149254 0 255 0
-1.470588 3.750000 -1.147059 0 255 0
-1.449275 3.695652 -1.144928 0 255 0
-1.428571 3.642857 -1.142857 0 255 0
-1.408451 3.591549 -1.140845 0 255 0
-1.388889 3.541667 -1.138889 0 255 0
-1.369863 3.493151 -1.136986 0 255 0
-1.351351 3.445946 -1.135135 0 255 0
-1.333333 3.400000 -1.133333 0 255 0
-1.315789 3.355263 -1.131579 0 255 0
-1.298701 3.311688 -1.129870 0 255 0
-1.282051 3.269231 -1.128205 0 255 0
-1.265823 3.227848 -1.126582 0 255 0
-1.250000 3.187500 -1.125000 0 255 0
-1.234568 3.148148 -1.123457 0 255 0
-1.219512 3.109756 -1.121951 0 255 0
-1.204819 3.072289 -1.120482 0 255 0
-1.190476 3.035714 -1.119048 0 255 0
-1.176471 3.000000 -1.117647 0 255 0
-1.162791 2.965116 -1.116279 0 255 0
-1.149425 2.931035 -1.114943 0 255 0
-1.136364 2.897727 -1.113636 0 255 0
-1.123595 2.865169 -1.112360 0 255 0
-1.111111 2.833333 -1.111111 0 255 0
-1.098901 2.802198 -1.109890 0 255 0
-1.086957 2.771739 -1.108696 0 255 0
-1.075269 2.741935 -1.107527 0 255 0
-1.063830 2.712766 -1.106383 0 255 0
-1.052632 2.684211 -1.105263 0 255 0
-1.041667 2.656250 -1.104167 0 255 0
-1.030928 2.628866 -1.103093 0 255 0
-1.020408 2.602041 -1.102041 0 255 0
-1.010101 2.575758 -1.101010 0 255 0
-1.000000 2.550000 -1.100000 0 255 0
-0.990099 -0.000000 -1.099010 0 255 0
-0.980392 -0.000000 -1.098039 0 255 0
-0.970874 -0.000000 -1.097087 0 255 0
-0.961538 -0.000000 -1.096154 0 255 0
-0.952381 -0.000000 -1.095238 0 255 0
-0.943396 -0.000000 -1.094340 0 255 0
-0.934579 -0.000000 -1.093458 0 255 0
-0.925926 -0.000000 -1.092593 0 255 0
-0.917431 -0.000000 -1.091743 0 255 0
-0.909091 -0.000000 -1.090909 0 255 0
-0.900901 -0.000000 -1.090090 0 255 0
-0.892857 -0.000000 -1.089286 0 255 0
-0.884956 -0.000000 -1.088496 0 255 0
-0.877193 -0.000000 -1.087719 0 255 0
-0.869565 -0.000000 -1.086957 0 255 0
-0.862069 -0.000000 -1.086207 0 255 0
-0.854701 -0.000000 -1.085470 0 255 0
-0.847458 -0.000000 -1.084746 0 255 0
-0.840336 -0.000000 -1.084034 0 255 0
-0.833333 -0.000000 -1.083333 0 255 0
-0.826446 -0.000000 -1.082645 0 255 0
-0.819672 -0.000000 -1.081967 0 255 0
-0.813008 -0.000000 -1.081301 0 255 0
-0.806452 -0.000000 -1.080645 0 255 0
-0.800000 -0.000000 -1.080000 0 255 0
-0.793651 -0.000000 -1.079365 0 255 0
-0.787402 -0.000000 -1.078740 0 255 0
-0.781250 -0.000000 -1.078125 0 255 0
-0.775194 -0.000000 -1.077519 0 255 0
-0.769231 -0.000000 -1.076923 0 255 0
-0.763359 -0.000000 -1.076336 0 255 0
-0.757576 -0.000000 -1.075758 0 255 0
-0.751880 -0.000000 -1.075188 0 255 0
-0.746269 -0.000000 -1.074627 0 255 0
-0.740741 -0.000000 -1.074074 0 255 0
-0.735294 -0.000000 -1.073529 0 255 0
-0.729927 -0.000000 -1.072993 0 255 0
-0.724638 -0.000000 -1.072464 0 255 0
-0.719424 -0.000000 -1.071942 0 255 0
-0.714286 -0.000000 -1.071429 0 255 0
-0.709220 -0.000000 -1.070922 0 255 0
-0.704225 -0.000000 -1.070423 0 255 0
-0.699301 1.783217 -1.069930 0 255 0
-0.694444 1.770833 -1.069444 0 255 0
-0.689655 1.758621 -1.068966 0 255 0
-0.684932 1.746575 -1.068493 0 255 0
-0.680272 1.734694 -1.068027 0 255 0
-0.675676 1.722973 -1.067568 0 255 0
-0.671141 1.711409 -1.067114 0 255 0
-0.666667 1.700000 -1.066667 0 255 0
-0.662252 1.688742 -1.066225 0 255 0
-0.657895 1.677632 -1.065789 0 255 0
-0.653595 1.666667 -1.065359 0 255 0
-0.649351 1.655844 -1.064935 0 255 0
-0.645161 1.645161 -1.064516 0 255 0
-0.641026 1.634615 -1.064103 0 255 0
-0.636943 1.624204 -1.063694 0 255 0
-0.632911 1.613924 -1.063291 0 255 0
-0.628931 1.603774 -1.062893 0 255 0
-0.625000 1.593750 -1.062500 0 255 0
-0.621118 1.583851 -1.062112 0 255 0
-0.617284 1.574074 -1.061728 0 255 0
-0.613497 1.564417 -1.061350 0 255 0
-0.609756 1.554878 -1.060976 0 255 0
-0.606061 1.545455 -1.060606 0 255 0
-0.602410 1.536145 -1.060241 0 255 0
-0.598802 1.526946 -1.059880 0 255 0
-0.595238 1.517857 -1.059524 0 255 0
-0.591716 1.508876 -1.059172 0 255 0
-0.588235 1.500000 -1.058824 0 255 0
-0.584795 1.491228 -1.058480 0 255 0
-0.581395 1.482558 -1.058140 0 255 0
-0.578035 1.473988 -1.057803 0 255 0
-0.574713 1.465517 -1.057471 0 255 0
-0.571429 1.457143 -1.057143 0 255 0
-0.568182 1.448864 -1.056818 0 255 0
-0.564972 1.440678 -1.056497 0 255 0
-0.561798 1.432584 -1.056180 0 255 0
-0.558659 1.424581 -1.055866 0 255 0
-0.555556 1.416667 -1.055556 0 255 0
-0.552486 1.408840 -1.055249 0 255 0
-0.549451 1.401099 -1.054945 0 255 0
-0.546448 1.393443 -1.054645 0 255 0
-0.543478 1.385870 -1.054348 0 255 0
-0.540541 1.378378 -1.054054 0 255 0
-0.537634 1.370968 -1.053763 0 255 0
-0.534759 1.363636 -1.053476 0 255 0
-0.531915 1.356383 -1.053191 0 255 0
-0.529101 1.349206 -1.052910 0 255 0
-0.526316 1.342105 -1.052632 0 255 0
-0.523560 1.335078 -1.052356 0 255 0
-0.520833 1.328125 -1.052083 0 255 0
-0.518135 1.321244 -1.051813 0 255 0
-0.515464 1.314433 -1.051546 0 255 0
-0.512821 1.307692 -1.051282 0 255 0
-0.510204 1.301020 -1.051020 0 255 0
-0.507614 1.294416 -1.050761 0 255 0
-0.505050 1.287879 -1.050505 0 255 0
-0.502513 1.281407 -1.050251 0 255 0
-0.500000 1.275000 -1.050000 0 255 0
-0.497512 1.268657 -1.049751 0 255 0
-0.495050 1.262376 -1.049505 0 255 0
-0.492611 1.256158 -1.049261 0 255 0
-0.490196 1.250000 -1.049020 0 255 0
-0.487805 1.243902 -1.048780 0 255 0
-0.485437 1.237864 -1.048544 0 255 0
-0.483092 1.231884 -1.048309 0 255 0
-0.480769 1.225962 -1.048077 0 255 0
-0.478469 1.220096 -1.047847 0 255 0
-0.476190 1.214286 -1.047619 0 255 0
-0.473934 1.208531 -1.047393 0 255 0
-0.471698 1.202830 -1.047170 0 255 0
-0.469484 1.197183 -1.046948 0 255 0
-0.467290 1.191589 -1.046729 0 255 0
-0.465116 1.186046 -1.046512 0 255 0
-0.462963 1.180556 -1.046296 0 255 0
-0.460829 1.175115 -1.046083 0 255 0
-0.458716 1.169725 -1.045872 0 255 0
-0.456621 1.164384 -1.045662 0 255 0
-0.454545 1.159091 -1.045455 0 255 0
-0.452489 1.153846 -1.045249 0 255 0
-0.450450 1.148649 -1.045045 0 255 0
-0.448430 1.143498 -1.044843 0 255 0
-101.000000 255.000000 -11.000000 0 255 0
-50.500000 127.500000 -6.000000 0 255 0
-33.666668 85.000000 -4.333333 0 255 0
-25.250000 63.750000 -3.500000 0 255 0
-20.200001 51.000000 -3.000000 0 255 0
-16.833334 42.500000 -2.666667 0 255 0
-14.428572 36.428570 -2.428571 0 255 0
-12.625000 31.875000 -2.250000 0 255 0
-11.222222 28.333334 -2.111111 0 255 0
-10.100000 25.500000 -2.000000 0 255 0
-9.181818 23.181818 -1.909091 0 255 0
-8.416667 21.250000 -1.833333 0 255 0
-7.769231 19.615385 -1.769231 0 255 0
-7.214286 18.214285 -1.714286 0 255 0
-6.733333 17.000000 -1.666667 0 255 0
-6.312500 15.937500 -1.625000 0 255 0
-5.941176 15.000000 -1.588235 0 255 0
-5.611111 14.166667 -1.555556 0 255 0
-5.315790 13.421053 -1.526316 0 255 0
-5.050000 12.750000 -1.500000 0 255 0
-4.809524 12.142858 -1.476190 0 255 0
-4.590909 11.590909 -1.454545 0 255 0
-4.391304 11.086957 -1.434783 0 255 0
-4.208333 10.625000 -1.416667 0 255 0
-4.040000 10.200000 -1.400000 0 255 0
-3.884615 9.807693 -1.384615 0 255 0
-3.740741 9.444445 -1.370370 0 255 0
-3.607143 9.107142 -1.357143 0 255 0
-3.482759 8.793103 -1.344828 0 255 0
-3.366667 8.500000 -1.333333 0 255 0
-3.258065 8.225806 -1.322581 0 255 0
-3.156250 7.968750 -1.312500 0 255 0
-3.060606 7.727273 -1.303030 0 255 0
