0.045993 0.008845 -2.039216 0 255 0
0.046189 0.008845 -2.039216 0 255 0
0.046386 0.008845 -2.039216 0 255 0
0.046582 0.008845 -2.039216 0 255 0
0.046779 0.008845 -2.039216 0 255 0
0.046975 0.008845 -2.039216 0 255 0
0.047172 0.008845 -2.039216 0 255 0
0.047369 0.008845 -2.039216 0 255 0
0.047565 0.008845 -2.039216 0 255 0
0.047762 0.008845 -2.039216 0 255 0
0.047958 0.008845 -2.039216 0 255 0
0.048155 0.008845 -2.039216 0 255 0
0.048351 0.008845 -2.039216 0 255 0
0.048548 0.008845 -2.039216 0 255 0
0.048744 0.008845 -2.039216 0 255 0
0.048941 0.008845 -2.039216 0 255 0
0.049138 0.008845 -2.039216 0 255 0
0.049334 0.008845 -2.039216 0 255 0
0.049531 0.008845 -2.039216 0 255 0
2.656375 0.768511 -5.333333 0 255 0
2.673081 0.768511 -5.333333 0 255 0
2.689788 0.768511 -5.333333 0 255 0
2.706495 0.768511 -5.333333 0 255 0
2.723202 0.768511 -5.333333 0 255 0
2.054931 0.576383 -4.500000 0 255 0
2.067461 0.576383 -4.500000 0 255 0
2.079992 0.576383 -4.500000 0 255 0
2.092521 0.576383 -4.500000 0 255 0
1.684041 0.461107 -4.000000 0 255 0
1.694065 0.461107 -4.000000 0 255 0
1.704089 0.461107 -4.000000 0 255 0
1.428428 0.384255 -3.666667 0 255 0
1.436781 0.384255 -3.666667 0 255 0
1.238687 0.329362 -3.428571 0 255 0
1.090116 0.288192 -3.250000 0 255 0
0.974561 0.256170 -3.111111 0 255 0
0.882117 0.230553 -3.000000 0 255 0
0.739274 0.192128 -2.833333 0 255 0
0.637244 0.164681 -2.714286 0 255 0
0.527737 0.135620 -2.588235 0 255 0
0.429602 0.109787 -2.476190 0 255 0
0.312820 0.079501 -2.344828 0 255 0
0.202709 0.051234 -2.222222 0 255 0
0.094557 0.023768 -2.103093 0 255 0
0.036165 0.009041 -2.039216 0 255 0
0.036362 0.009041 -2.039216 0 255 0
0.036558 0.009041 -2.039216 0 255 0
0.036755 0.009041 -2.039216 0 255 0
0.036951 0.009041 -2.039216 0 255 0
0.037148 0.009041 -2.039216 0 255 0
0.037345 0.009041 -2.039216 0 255 0
0.037541 0.009041 -2.039216 0 255 0
0.037738 0.009041 -2.039216 0 255 0
0.037934 0.009041 -2.039216 0 255 0
0.038131 0.009041 -2.039216 0 255 0
0.038327 0.009041 -2.039216 0 255 0
0.038524 0.009041 -2.039216 0 255 0
0.038720 0.009041 -2.039216 0 255 0
0.038917 0.009041 -2.039216 0 255 0
0.039113 0.009041 -2.039216 0 255 0
0.039310 0.009041 -2.039216 0 255 0
0.039507 0.009041 -2.039216 0 255 0
0.039703 0.009041 -2.039216 0 255 0
0.039900 0.009041 -2.039216 0 255 0
0.040096 0.009041 -2.039216 0 255 0
0.040293 0.009041 -2.039216 0 255 0
0.040489 0.009041 -2.039216 0 255 0
0.040686 0.009041 -2.039216 0 255 0
0.040882 0.009041 -2.039216 0 255 0
0.041079 0.009041 -2.039216 0 255 0
0.041276 0.009041 -2.039216 0 255 0
0.041472 0.009041 -2.039216 0 255 0
0.041669 0.009041 -2.039216 0 255 0
0.041865 0.009041 -2.039216 0 255 0
0.042062 0.009041 -2.039216 0 255 0
0.042258 0.009041 -2.039216 0 255 0
0.042455 0.009041 -2.039216 0 255 0
0.042651 0.009041 -2.039216 0 255 0
0.042848 0.009041 -2.039216 0 255 0
0.043044 0.009041 -2.039216 0 255 0
0.043241 0.009041 -2.039216 0 255 0
0.043438 0.009041 -2.039216 0 255 0
0.043634 0.009041 -2.039216 0 255 0
0.043831 0.009041 -2.039216 0 255 0
0.044027 0.009041 -2.039216 0 255 0
0.044224 0.009041 -2.039216 0 255 0
0.044420 0.009041 -2.039216 0 255 0
0.044617 0.009041 -2.039216 0 255 0
0.044813 0.009041 -2.039216 0 255 0
0.045010 0.009041 -2.039216 0 255 0
0.045207 0.009041 -2.039216 0 255 0
0.045403 0.009041 -2.039216 0 255 0
0.045600 0.009041 -2.039216 0 255 0
0.045796 0.009041 -2.039216 0 255 0
0.045993 0.009041 -2.039216 0 255 0
0.046189 0.009041 -2.039216 0 255 0
0.046386 0.009041 -2.039216 0 255 0
0.046582 0.009041 -2.039216 0 255 0
0.046779 0.009041 -2.039216 0 255 0
0.046975 0.009041 -2.039216 0 255 0
0.047172 0.009041 -2.039216 0 255 0
0.047369 0.009041 -2.039216 0 255 0
0.047565 0.009041 -2.039216 0 255 0
0.047762 0.009041 -2.039216 0 255 0
0.047958 0.009041 -2.039216 0 255 0
0.048155 0.009041 -2.039216 0 255 0
0.048351 0.009041 -2.039216 0 255 0
0.048548 0.009041 -2.039216 0 255 0
0.048744 0.009041 -2.039216 0 255 0
0.048941 0.009041 -2.039216 0 255 0
0.049138 0.009041 -2.039216 0 255 0
0.049334 0.009041 -2.039216 0 255 0
3.959502 1.177827 -7.000000 0 255 0
3.984562 1.177827 -7.000000 0 255 0
4.009622 1.177827 -7.000000 0 255 0
2.689788 0.785218 -5.333333 0 255 0
2.706495 0.785218 -5.333333 0 255 0
2.723202 0.785218 -5.333333 0 255 0
2.739908 0.785218 -5.333333 0 255 0
2.756615 0.785218 -5.333333 0 255 0
2.773322 0.785218 -5.333333 0 255 0
2.092521 0.588913 -4.500000 0 255 0
2.105052 0.588913 -4.500000 0 255 0
2.117582 0.588913 -4.500000 0 255 0
2.130112 0.588913 -4.500000 0 255 0
1.714113 0.471131 -4.000000 0 255 0
1.724138 0.471131 -4.000000 0 255 0
1.734161 0.471131 -4.000000 0 255 0
1.453488 0.392609 -3.666667 0 255 0
1.461841 0.392609 -3.666667 0 255 0
1.260167 0.336522 -3.428571 0 255 0
1.108911 0.294457 -3.250000 0 255 0
0.991268 0.261739 -3.111111 0 255 0
0.897153 0.235565 -3.000000 0 255 0
0.751804 0.196304 -2.833333 0 255 0
0.647984 0.168261 -2.714286 0 255 0
0.536582 0.138568 -2.588235 0 255 0
0.436762 0.112174 -2.476190 0 255 0
0.318004 0.081229 -2.344828 0 255 0
0.210733 0.053538 -2.227273 0 255 0
0.099174 0.025060 -2.106383 0 255 0
0.036755 0.009238 -2.039216 0 255 0
0.036951 0.009238 -2.039216 0 255 0
0.037148 0.009238 -2.039216 0 255 0
0.037345 0.009238 -2.039216 0 255 0
0.037541 0.009238 -2.039216 0 255 0
0.037738 0.009238 -2.039216 0 255 0
0.037934 0.009238 -2.039216 0 255 0
0.038131 0.009238 -2.039216 0 255 0
0.038327 0.009238 -2.039216 0 255 0
0.038524 0.009238 -2.039216 0 255 0
0.038720 0.009238 -2.039216 0 255 0
0.038917 0.009238 -2.039216 0 255 0
0.039113 0.009238 -2.039216 0 255 0
0.039310 0.009238 -2.039216 0 255 0
0.039507 0.009238 -2.039216 0 255 0
0.039703 0.009238 -2.039216 0 255 0
0.039900 0.009238 -2.039216 0 255 0
0.040096 0.009238 -2.039216 0 255 0
0.040293 0.009238 -2.039216 0 255 0
0.040489 0.009238 -2.039216 0 255 0
0.040686 0.009238 -2.039216 0 255 0
0.040882 0.009238 -2.039216 0 255 0
0.041079 0.009238 -2.039216 0 255 0
0.041276 0.009238 -2.039216 0 255 0
0.041472 0.009238 -2.039216 0 255 0
0.041669 0.009238 -2.039216 0 255 0
0.041865 0.009238 -2.039216 0 255 0
0.042062 0.009238 -2.039216 0 255 0
0.042258 0.009238 -2.039216 0 255 0
0.042455 0.009238 -2.039216 0 255 0
0.042651 0.009238 -2.039216 0 255 0
0.042848 0.009238 -2.039216 0 255 0
0.043044 0.009238 -2.039216 0 255 0
0.043241 0.009238 -2.039216 0 255 0
0.043438 0.009238 -2.039216 0 255 0
0.043634 0.009238 -2.039216 0 255 0
0.043831 0.009238 -2.039216 0 255 0
0.044027 0.009238 -2.039216 0 255 0
0.044224 0.009238 -2.039216 0 255 0
0.044420 0.009238 -2.039216 0 255 0
0.044617 0.009238 -2.039216 0 255 0
0.044813 0.009238 -2.039216 0 255 0
0.045010 0.009238 -2.039216 0 255 0
0.045207 0.009238 -2.039216 0 255 0
0.045403 0.009238 -2.039216 0 255 0
0.045600 0.009238 -2.039216 0 255 0
0.045796 0.009238 -2.039216 0 255 0
0.045993 0.009238 -2.039216 0 255 0
0.046189 0.009238 -2.039216 0 255 0
0.046386 0.009238 -2.039216 0 255 0
0.046582 0.009238 -2.039216 0 255 0
0.046779 0.009238 -2.039216 0 255 0
0.046975 0.009238 -2.039216 0 255 0
0.047172 0.009238 -2.039216 0 255 0
0.047369 0.009238 -2.039216 0 255 0
0.047565 0.009238 -2.039216 0 255 0
0.047762 0.009238 -2.039216 0 255 0
0.047958 0.009238 -2.039216 0 255 0
0.048155 0.009238 -2.039216 0 255 0
0.048351 0.009238 -2.039216 0 255 0
0.048548 0.009238 -2.039216 0 255 0
0.048744 0.009238 -2.039216 0 255 0
0.048941 0.009238 -2.039216 0 255 0
0.049138 0.009238 -2.039216 0 255 0
3.959502 1.202887 -7.000000 0 255 0
3.984562 1.202887 -7.000000 0 255 0
4.009622 1.202887 -7.000000 0 255 0
4.034682 1.202887 -7.000000 0 255 0
4.059742 1.202887 -7.000000 0 255 0
4.084803 1.202887 -7.000000 0 255 0
2.739908 0.801924 -5.333333 0 255 0
2.756615 0.801924 -5.333333 0 255 0
2.773322 0.801924 -5.333333 0 255 0
2.790029 0.801924 -5.333333 0 255 0
2.806736 0.801924 -5.333333 0 255 0
2.823442 0.801924 -5.333333 0 255 0
2.130112 0.601443 -4.500000 0 255 0
2.142642 0.601443 -4.500000 0 255 0
2.155172 0.601443 -4.500000 0 255 0
2.167702 0.601443 -4.500000 0 255 0
1.744186 0.481155 -4.000000 0 255 0
1.754210 0.481155 -4.000000 0 255 0
1.764234 0.481155 -4.000000 0 255 0
1.478548 0.400962 -3.666667 0 255 0
1.486902 0.400962 -3.666667 0 255 0
1.281647 0.343682 -3.428571 0 255 0
1.127706 0.300722 -3.250000 0 255 0
1.007974 0.267308 -3.111111 0 255 0
0.912189 0.240577 -3.000000 0 255 0
0.764334 0.200481 -2.833333 0 255 0
0.658724 0.171841 -2.714286 0 255 0
0.545427 0.141516 -2.588235 0 255 0
0.443922 0.114561 -2.476190 0 255 0
0.323189 0.082958 -2.344828 0 255 0
0.214150 0.054677 -2.227273 0 255 0
0.104096 0.026437 -2.109890 0 255 0
0.037345 0.009434 -2.039216 0 255 0
0.037541 0.009434 -2.039216 0 255 0
0.037738 0.009434 -2.039216 0 255 0
0.037934 0.009434 -2.039216 0 255 0
0.038131 0.009434 -2.039216 0 255 0
0.038327 0.009434 -2.039216 0 255 0
0.038524 0.009434 -2.039216 0 255 0
0.038720 0.009434 -2.039216 0 255 0
0.038917 0.009434 -2.039216 0 255 0
0.039113 0.009434 -2.039216 0 255 0
0.039310 0.009434 -2.039216 0 255 0
0.039507 0.009434 -2.039216 0 255 0
0.039703 0.009434 -2.039216 0 255 0
0.039900 0.009434 -2.039216 0 255 0
0.040096 0.009434 -2.039216 0 255 0
0.040293 0.009434 -2.039216 0 255 0
0.040489 0.009434 -2.039216 0 255 0
0.040686 0.009434 -2.039216 0 255 0
0.040882 0.009434 -2.039216 0 255 0
0.041079 0.009434 -2.039216 0 255 0
0.041276 0.009434 -2.039216 0 255 0
0.041472 0.009434 -2.039216 0 255 0
0.041669 0.009434 -2.039216 0 255 0
0.041865 0.009434 -2.039216 0 255 0
0.042062 0.009434 -2.039216 0 255 0
0.042258 0.009434 -2.039216 0 255 0
0.042455 0.009434 -2.039216 0 255 0
0.042651 0.009434 -2.039216 0 255 0
0.042848 0.009434 -2.039216 0 255 0
0.043044 0.009434 -2.039216 0 255 0
0.043241 0.009434 -2.039216 0 255 0
0.043438 0.009434 -2.039216 0 255 0
0.043634 0.009434 -2.039216 0 255 0
0.043831 0.009434 -2.039216 0 255 0
0.044027 0.009434 -2.039216 0 255 0
0.044224 0.009434 -2.039216 0 255 0
0.044420 0.009434 -2.039216 0 255 0
0.044617 0.009434 -2.039216 0 255 0
0.044813 0.009434 -2.039216 0 255 0
0.045010 0.009434 -2.039216 0 255 0
0.045207 0.009434 -2.039216 0 255 0
0.045403 0.009434 -2.039216 0 255 0
0.045600 0.009434 -2.039216 0 255 0
0.045796 0.009434 -2.039216 0 255 0
0.045993 0.009434 -2.039216 0 255 0
0.046189 0.009434 -2.039216 0 255 0
0.046386 0.009434 -2.039216 0 255 0
0.046582 0.009434 -2.039216 0 255 0
0.046779 0.009434 -2.039216 0 255 0
0.046975 0.009434 -2.039216 0 255 0
0.047172 0.009434 -2.039216 0 255 0
0.047369 0.009434 -2.039216 0 255 0
0.047565 0.009434 -2.039216 0 255 0
0.047762 0.009434 -2.039216 0 255 0
0.047958 0.009434 -2.039216 0 255 0
0.048155 0.009434 -2.039216 0 255 0
0.048351 0.009434 -2.039216 0 255 0
0.048548 0.009434 -2.039216 0 255 0
0.048744 0.009434 -2.039216 0 255 0
0.048941 0.009434 -2.039216 0 255 0
0.049138 0.009434 -2.039216 0 255 0
3.934442 1.227947 -7.000000 0 255 0
3.959502 1.227947 -7.000000 0 255 0
3.984562 1.227947 -7.000000 0 255 0
4.009622 1.227947 -7.000000 0 255 0
4.034682 1.227947 -7.000000 0 255 0
4.059742 1.227947 -7.000000 0 255 0
4.084803 1.227947 -7.000000 0 255 0
4.109862 1.227947 -7.000000 0 255 0
4.134923 1.227947 -7.000000 0 255 0
4.159983 1.227947 -7.000000 0 255 0
2.790029 0.818631 -5.333333 0 255 0
2.806736 0.818631 -5.333333 0 255 0
2.823442 0.818631 -5.333333 0 255 0
2.840149 0.818631 -5.333333 0 255 0
2.856856 0.818631 -5.333333 0 255 0
2.873563 0.818631 -5.333333 0 255 0
2.167702 0.613973 -4.500000 0 255 0
2.180232 0.613973 -4.500000 0 255 0
2.192762 0.613973 -4.500000 0 255 0
2.205292 0.613973 -4.500000 0 255 0
1.774258 0.491179 -4.000000 0 255 0
1.784282 0.491179 -4.000000 0 255 0
1.794306 0.491179 -4.000000 0 255 0
1.503608 0.409316 -3.666667 0 255 0
1.295967 0.350842 -3.428571 0 255 0
1.303127 0.350842 -3.428571 0 255 0
1.146501 0.306987 -3.250000 0 255 0
1.024681 0.272877 -3.111111 0 255 0
0.927225 0.245589 -3.000000 0 255 0
0.776864 0.204658 -2.833333 0 255 0
0.669464 0.175421 -2.714286 0 255 0
0.554271 0.144464 -2.588235 0 255 0
0.451082 0.116947 -2.476190 0 255 0
0.340102 0.087710 -2.357143 0 255 0
0.222627 0.057114 -2.232558 0 255 0
0.109353 0.027908 -2.113636 0 255 0
0.037934 0.009631 -2.039216 0 255 0
0.038131 0.009631 -2.039216 0 255 0
0.038327 0.009631 -2.039216 0 255 0
0.038524 0.009631 -2.039216 0 255 0
0.038720 0.009631 -2.039216 0 255 0
0.038917 0.009631 -2.039216 0 255 0
0.039113 0.009631 -2.039216 0 255 0
0.039310 0.009631 -2.039216 0 255 0
0.039507 0.009631 -2.039216 0 255 0
0.039703 0.009631 -2.039216 0 255 0
0.039900 0.009631 -2.039216 0 255 0
0.040096 0.009631 -2.039216 0 255 0
0.040293 0.009631 -2.039216 0 255 0
0.040489 0.009631 -2.039216 0 255 0
0.040686 0.009631 -2.039216 0 255 0
0.040882 0.009631 -2.039216 0 255 0
0.041079 0.009631 -2.039216 0 255 0
0.041276 0.009631 -2.039216 0 255 0
0.041472 0.009631 -2.039216 0 255 0
0.041669 0.009631 -2.039216 0 255 0
0.041865 0.009631 -2.039216 0 255 0
0.042062 0.009631 -2.039216 0 255 0
0.042258 0.009631 -2.039216 0 255 0
0.042455 0.009631 -2.039216 0 255 0
0.042651 0.009631 -2.039216 0 255 0
0.042848 0.009631 -2.039216 0 255 0
0.043044 0.009631 -2.039216 0 255 0
0.043241 0.009631 -2.039216 0 255 0
0.043438 0.009631 -2.039216 0 255 0
0.043634 0.009631 -2.039216 0 255 0
0.043831 0.009631 -2.039216 0 255 0
0.044027 0.009631 -2.039216 0 255 0
0.044224 0.009631 -2.039216 0 255 0
0.044420 0.009631 -2.039216 0 255 0
0.044617 0.009631 -2.039216 0 255 0
0.044813 0.009631 -2.039216 0 255 0
0.045010 0.009631 -2.039216 0 255 0
0.045207 0.009631 -2.039216 0 255 0
0.045403 0.009631 -2.039216 0 255 0
0.045600 0.009631 -2.039216 0 255 0
0.045796 0.009631 -2.039216 0 255 0
0.045993 0.009631 -2.039216 0 255 0
0.046189 0.009631 -2.039216 0 255 0
0.046386 0.009631 -2.039216 0 255 0
0.046582 0.009631 -2.039216 0 255 0
0.046779 0.009631 -2.039216 0 255 0
0.046975 0.009631 -2.039216 0 255 0
0.047172 0.009631 -2.039216 0 255 0
0.047369 0.009631 -2.039216 0 255 0
0.047565 0.009631 -2.039216 0 255 0
0.047762 0.009631 -2.039216 0 255 0
0.047958 0.009631 -2.039216 0 255 0
0.048155 0.009631 -2.039216 0 255 0
0.048351 0.009631 -2.039216 0 255 0
0.048548 0.009631 -2.039216 0 255 0
0.048744 0.009631 -2.039216 0 255 0
0.048941 0.009631 -2.039216 0 255 0
3.934442 1.253007 -7.000000 0 255 0
3.959502 1.253007 -7.000000 0 255 0
3.984562 1.253007 -7.000000 0 255 0
4.009622 1.253007 -7.000000 0 255 0
4.034682 1.253007 -7.000000 0 255 0
4.059742 1.253007 -7.000000 0 255 0
4.084803 1.253007 -7.000000 0 255 0
4.109862 1.253007 -7.000000 0 255 0
4.134923 1.253007 -7.000000 0 255 0
4.159983 1.253007 -7.000000 0 255 0
4.185043 1.253007 -7.000000 0 255 0
4.210103 1.253007 -7.000000 0 255 0
2.823442 0.835338 -5.333333 0 255 0
2.840149 0.835338 -5.333333 0 255 0
2.856856 0.835338 -5.333333 0 255 0
2.873563 0.835338 -5.333333 0 255 0
2.890269 0.835338 -5.333333 0 255 0
2.906976 0.835338 -5.333333 0 255 0
2.923683 0.835338 -5.333333 0 255 0
2.205292 0.626503 -4.500000 0 255 0
2.217822 0.626503 -4.500000 0 255 0
2.230352 0.626503 -4.500000 0 255 0
2.242882 0.626503 -4.500000 0 255 0
1.804330 0.501203 -4.000000 0 255 0
1.814354 0.501203 -4.000000 0 255 0
1.824378 0.501203 -4.000000 0 255 0
1.528669 0.417669 -3.666667 0 255 0
1.317447 0.358002 -3.428571 0 255 0
1.324607 0.358002 -3.428571 0 255 0
1.165296 0.313252 -3.250000 0 255 0
1.041388 0.278446 -3.111111 0 255 0
0.942261 0.250601 -3.000000 0 255 0
0.789394 0.208834 -2.833333 0 255 0
0.680204 0.179001 -2.714286 0 255 0
0.563116 0.147413 -2.588235 0 255 0
0.458243 0.119334 -2.476190 0 255 0
0.345472 0.089500 -2.357143 0 255 0
0.226124 0.058279 -2.232558 0 255 0
0.113645 0.029140 -2.116279 0 255 0
0.038524 0.009828 -2.039216 0 255 0
0.038720 0.009828 -2.039216 0 255 0
0.038917 0.009828 -2.039216 0 255 0
0.039113 0.009828 -2.039216 0 255 0
0.039310 0.009828 -2.039216 0 255 0
0.039507 0.009828 -2.039216 0 255 0
0.039703 0.009828 -2.039216 0 255 0
0.039900 0.009828 -2.039216 0 255 0
0.040096 0.009828 -2.039216 0 255 0
0.040293 0.009828 -2.039216 0 255 0
0.040489 0.009828 -2.039216 0 255 0
0.040686 0.009828 -2.039216 0 255 0
0.040882 0.009828 -2.039216 0 255 0
0.041079 0.009828 -2.039216 0 255 0
0.041276 0.009828 -2.039216 0 255 0
0.041472 0.009828 -2.039216 0 255 0
0.041669 0.009828 -2.039216 0 255 0
0.041865 0.009828 -2.039216 0 255 0
0.042062 0.009828 -2.039216 0 255 0
0.042258 0.009828 -2.039216 0 255 0
0.042455 0.009828 -2.039216 0 255 0
0.042651 0.009828 -2.039216 0 255 0
0.042848 0.009828 -2.039216 0 255 0
0.043044 0.009828 -2.039216 0 255 0
0.043241 0.009828 -2.039216 0 255 0
0.043438 0.009828 -2.039216 0 255 0
0.043634 0.009828 -2.039216 0 255 0
0.043831 0.009828 -2.039216 0 255 0
0.044027 0.009828 -2.039216 0 255 0
0.044224 0.009828 -2.039216 0 255 0
0.044420 0.009828 -2.039216 0 255 0
0.044617 0.009828 -2.039216 0 255 0
0.044813 0.009828 -2.039216 0 255 0
0.045010 0.009828 -2.039216 0 255 0
0.045207 0.009828 -2.039216 0 255 0
0.045403 0.009828 -2.039216 0 255 0
0.045600 0.009828 -2.039216 0 255 0
0.045796 0.009828 -2.039216 0 255 0
0.045993 0.009828 -2.039216 0 255 0
0.046189 0.009828 -2.039216 0 255 0
0.046386 0.009828 -2.039216 0 255 0
0.046582 0.009828 -2.039216 0 255 0
0.046779 0.009828 -2.039216 0 255 0
0.046975 0.009828 -2.039216 0 255 0
0.047172 0.009828 -2.039216 0 255 0
0.047369 0.009828 -2.039216 0 255 0
0.047565 0.009828 -2.039216 0 255 0
0.047762 0.009828 -2.039216 0 255 0
0.047958 0.009828 -2.039216 0 255 0
0.048155 0.009828 -2.039216 0 255 0
0.048351 0.009828 -2.039216 0 255 0
0.048548 0.009828 -2.039216 0 255 0
0.048744 0.009828 -2.039216 0 255 0
7.868884 2.556134 -12.000000 0 255 0
7.919003 2.556134 -12.000000 0 255 0
7.969124 2.556134 -12.000000 0 255 0
4.009622 1.278067 -7.000000 0 255 0
4.034682 1.278067 -7.000000 0 255 0
4.059742 1.278067 -7.000000 0 255 0
4.084803 1.278067 -7.000000 0 255 0
4.109862 1.278067 -7.000000 0 255 0
4.134923 1.278067 -7.000000 0 255 0
4.159983 1.278067 -7.000000 0 255 0
4.185043 1.278067 -7.000000 0 255 0
4.210103 1.278067 -7.000000 0 255 0
4.235164 1.278067 -7.000000 0 255 0
4.260223 1.278067 -7.000000 0 255 0
4.285284 1.278067 -7.000000 0 255 0
2.873563 0.852045 -5.333333 0 255 0
2.890269 0.852045 -5.333333 0 255 0
2.906976 0.852045 -5.333333 0 255 0
2.923683 0.852045 -5.333333 0 255 0
2.940389 0.852045 -5.333333 0 255 0
2.957096 0.852045 -5.333333 0 255 0
2.973803 0.852045 -5.333333 0 255 0
2.242882 0.639033 -4.500000 0 255 0
2.255413 0.639033 -4.500000 0 255 0
2.267942 0.639033 -4.500000 0 255 0
2.280473 0.639033 -4.500000 0 255 0
1.834402 0.511227 -4.000000 0 255 0
1.844426 0.511227 -4.000000 0 255 0
1.545375 0.426022 -3.666667 0 255 0
1.553729 0.426022 -3.666667 0 255 0
1.338927 0.365162 -3.428571 0 255 0
1.346087 0.365162 -3.428571 0 255 0
1.184092 0.319517 -3.250000 0 255 0
1.058095 0.284015 -3.111111 0 255 0
0.957297 0.255613 -3.000000 0 255 0
0.801924 0.213011 -2.833333 0 255 0
0.690944 0.182581 -2.714286 0 255 0
0.571961 0.150361 -2.588235 0 255 0
0.465403 0.121721 -2.476190 0 255 0
0.350842 0.091291 -2.357143 0 255 0
0.235088 0.060860 -2.238095 0 255 0
0.119564 0.030797 -2.120482 0 255 0
0.039113 0.010024 -2.039216 0 255 0
0.039310 0.010024 -2.039216 0 255 0
0.039507 0.010024 -2.039216 0 255 0
0.039703 0.010024 -2.039216 0 255 0
0.039900 0.010024 -2.039216 0 255 0
0.040096 0.010024 -2.039216 0 255 0
0.040293 0.010024 -2.039216 0 255 0
0.040489 0.010024 -2.039216 0 255 0
0.040686 0.010024 -2.039216 0 255 0
0.040882 0.010024 -2.039216 0 255 0
0.041079 0.010024 -2.039216 0 255 0
0.041276 0.010024 -2.039216 0 255 0
0.041472 0.010024 -2.039216 0 255 0
0.041669 0.010024 -2.039216 0 255 0
0.041865 0.010024 -2.039216 0 255 0
0.042062 0.010024 -2.039216 0 255 0
0.042258 0.010024 -2.039216 0 255 0
0.042455 0.010024 -2.039216 0 255 0
0.042651 0.010024 -2.039216 0 255 0
0.042848 0.010024 -2.039216 0 255 0
0.043044 0.010024 -2.039216 0 255 0
0.043241 0.010024 -2.039216 0 255 0
0.043438 0.010024 -2.039216 0 255 0
0.043634 0.010024 -2.039216 0 255 0
0.043831 0.010024 -2.039216 0 255 0
0.044027 0.010024 -2.039216 0 255 0
0.044224 0.010024 -2.039216 0 255 0
0.044420 0.010024 -2.039216 0 255 0
0.044617 0.010024 -2.039216 0 255 0
0.044813 0.010024 -2.039216 0 255 0
0.045010 0.010024 -2.039216 0 255 0
0.045207 0.010024 -2.039216 0 255 0
0.045403 0.010024 -2.039216 0 255 0
0.045600 0.010024 -2.039216 0 255 0
0.045796 0.010024 -2.039216 0 255 0
0.045993 0.010024 -2.039216 0 255 0
0.046189 0.010024 -2.039216 0 255 0
0.046386 0.010024 -2.039216 0 255 0
0.046582 0.010024 -2.039216 0 255 0
0.046779 0.010024 -2.039216 0 255 0
0.046975 0.010024 -2.039216 0 255 0
0.047172 0.010024 -2.039216 0 255 0
0.047369 0.010024 -2.039216 0 255 0
0.047565 0.010024 -2.039216 0 255 0
0.047762 0.010024 -2.039216 0 255 0
0.047958 0.010024 -2.039216 0 255 0
0.048155 0.010024 -2.039216 0 255 0
0.048351 0.010024 -2.039216 0 255 0
0.048548 0.010024 -2.039216 0 255 0
0.048744 0.010024 -2.039216 0 255 0
7.818763 2.606254 -12.000000 0 255 0
7.868884 2.606254 -12.000000 0 255 0
7.919003 2.606254 -12.000000 0 255 0
7.969124 2.606254 -12.000000 0 255 0
8.019244 2.606254 -12.000000 0 255 0
8.069365 2.606254 -12.000000 0 255 0
8.119485 2.606254 -12.000000 0 255 0
4.084803 1.303127 -7.000000 0 255 0
4.109862 1.303127 -7.000000 0 255 0
4.134923 1.303127 -7.000000 0 255 0
4.159983 1.303127 -7.000000 0 255 0
4.185043 1.303127 -7.000000 0 255 0
4.210103 1.303127 -7.000000 0 255 0
4.235164 1.303127 -7.000000 0 255 0
4.260223 1.303127 -7.000000 0 255 0
4.285284 1.303127 -7.000000 0 255 0
4.310344 1.303127 -7.000000 0 255 0
4.335404 1.303127 -7.000000 0 255 0
4.360464 1.303127 -7.000000 0 255 0
2.923683 0.868751 -5.333333 0 255 0
2.940389 0.868751 -5.333333 0 255 0
2.957096 0.868751 -5.333333 0 255 0
2.973803 0.868751 -5.333333 0 255 0
2.990510 0.868751 -5.333333 0 255 0
3.007217 0.868751 -5.333333 0 255 0
3.023923 0.868751 -5.333333 0 255 0
2.280473 0.651564 -4.500000 0 255 0
2.293003 0.651564 -4.500000 0 255 0
2.305533 0.651564 -4.500000 0 255 0
2.318063 0.651564 -4.500000 0 255 0
1.864474 0.521251 -4.000000 0 255 0
1.874498 0.521251 -4.000000 0 255 0
1.570435 0.434376 -3.666667 0 255 0
1.578789 0.434376 -3.666667 0 255 0
1.360407 0.372322 -3.428571 0 255 0
1.367568 0.372322 -3.428571 0 255 0
1.202887 0.325782 -3.250000 0 255 0
1.074801 0.289584 -3.111111 0 255 0
0.972333 0.260625 -3.000000 0 255 0
0.814454 0.217188 -2.833333 0 255 0
0.701684 0.186161 -2.714286 0 255 0
0.580806 0.153309 -2.588235 0 255 0
0.472563 0.124107 -2.476190 0 255 0
0.356212 0.093081 -2.357143 0 255 0
0.238668 0.062054 -2.238095 0 255 0
0.124373 0.032176 -2.123457 0 255 0
0.039703 0.010221 -2.039216 0 255 0
0.039900 0.010221 -2.039216 0 255 0
0.040096 0.010221 -2.039216 0 255 0
0.040293 0.010221 -2.039216 0 255 0
0.040489 0.010221 -2.039216 0 255 0
0.040686 0.010221 -2.039216 0 255 0
0.040882 0.010221 -2.039216 0 255 0
0.041079 0.010221 -2.039216 0 255 0
0.041276 0.010221 -2.039216 0 255 0
0.041472 0.010221 -2.039216 0 255 0
0.041669 0.010221 -2.039216 0 255 0
0.041865 0.010221 -2.039216 0 255 0
0.042062 0.010221 -2.039216 0 255 0
0.042258 0.010221 -2.039216 0 255 0
0.042455 0.010221 -2.039216 0 255 0
0.042651 0.010221 -2.039216 0 255 0
0.042848 0.010221 -2.039216 0 255 0
0.043044 0.010221 -2.039216 0 255 0
0.043241 0.010221 -2.039216 0 255 0
0.043438 0.010221 -2.039216 0 255 0
0.043634 0.010221 -2.039216 0 255 0
0.043831 0.010221 -2.039216 0 255 0
0.044027 0.010221 -2.039216 0 255 0
0.044224 0.010221 -2.039216 0 255 0
0.044420 0.010221 -2.039216 0 255 0
0.044617 0.010221 -2.039216 0 255 0
0.044813 0.010221 -2.039216 0 255 0
0.045010 0.010221 -2.039216 0 255 0
0.045207 0.010221 -2.039216 0 255 0
0.045403 0.010221 -2.039216 0 255 0
0.045600 0.010221 -2.039216 0 255 0
0.045796 0.010221 -2.039216 0 255 0
0.045993 0.010221 -2.039216 0 255 0
0.046189 0.010221 -2.039216 0 255 0
0.046386 0.010221 -2.039216 0 255 0
0.046582 0.010221 -2.039216 0 255 0
0.046779 0.010221 -2.039216 0 255 0
0.046975 0.010221 -2.039216 0 255 0
0.047172 0.010221 -2.039216 0 255 0
0.047369 0.010221 -2.039216 0 255 0
0.047565 0.010221 -2.039216 0 255 0
0.047762 0.010221 -2.039216 0 255 0
0.047958 0.010221 -2.039216 0 255 0
0.048155 0.010221 -2.039216 0 255 0
0.048351 0.010221 -2.039216 0 255 0
0.048548 0.010221 -2.039216 0 255 0
7.818763 2.656374 -12.000000 0 255 0
7.868884 2.656374 -12.000000 0 255 0
7.919003 2.656374 -12.000000 0 255 0
7.969124 2.656374 -12.000000 0 255 0
8.019244 2.656374 -12.000000 0 255 0
8.069365 2.656374 -12.000000 0 255 0
8.119485 2.656374 -12.000000 0 255 0
8.169605 2.656374 -12.000000 0 255 0
8.219725 2.656374 -12.000000 0 255 0
4.134923 1.328187 -7.000000 0 255 0
4.159983 1.328187 -7.000000 0 255 0
4.185043 1.328187 -7.000000 0 255 0
4.210103 1.328187 -7.000000 0 255 0
4.235164 1.328187 -7.000000 0 255 0
4.260223 1.328187 -7.000000 0 255 0
4.285284 1.328187 -7.000000 0 255 0
4.310344 1.328187 -7.000000 0 255 0
4.335404 1.328187 -7.000000 0 255 0
4.360464 1.328187 -7.000000 0 255 0
4.385524 1.328187 -7.000000 0 255 0
4.410584 1.328187 -7.000000 0 255 0
4.435645 1.328187 -7.000000 0 255 0
2.973803 0.885458 -5.333333 0 255 0
2.990510 0.885458 -5.333333 0 255 0
3.007217 0.885458 -5.333333 0 255 0
3.023923 0.885458 -5.333333 0 255 0
3.040630 0.885458 -5.333333 0 255 0
3.057337 0.885458 -5.333333 0 255 0
3.074044 0.885458 -5.333333 0 255 0
2.318063 0.664094 -4.500000 0 255 0
2.330593 0.664094 -4.500000 0 255 0
2.343123 0.664094 -4.500000 0 255 0
2.355653 0.664094 -4.500000 0 255 0
1.894547 0.531275 -4.000000 0 255 0
1.904570 0.531275 -4.000000 0 255 0
1.595495 0.442729 -3.666667 0 255 0
1.603849 0.442729 -3.666667 0 255 0
1.381888 0.379482 -3.428571 0 255 0
1.389048 0.379482 -3.428571 0 255 0
1.221682 0.332047 -3.250000 0 255 0
1.091508 0.295153 -3.111111 0 255 0
0.987369 0.265637 -3.000000 0 255 0
0.826985 0.221365 -2.833333 0 255 0
0.712424 0.189741 -2.714286 0 255 0
0.589650 0.156257 -2.588235 0 255 0
0.479723 0.126494 -2.476190 0 255 0
0.361582 0.094871 -2.357143 0 255 0
0.242248 0.063247 -2.238095 0 255 0
0.129425 0.033625 -2.126582 0 255 0
0.040293 0.010417 -2.039216 0 255 0
0.040489 0.010417 -2.039216 0 255 0
0.040686 0.010417 -2.039216 0 255 0
0.040882 0.010417 -2.039216 0 255 0
0.041079 0.010417 -2.039216 0 255 0
0.041276 0.010417 -2.039216 0 255 0
0.041472 0.010417 -2.039216 0 255 0
0.041669 0.010417 -2.039216 0 255 0
0.041865 0.010417 -2.039216 0 255 0
0.042062 0.010417 -2.039216 0 255 0
0.042258 0.010417 -2.039216 0 255 0
0.042455 0.010417 -2.039216 0 255 0
0.042651 0.010417 -2.039216 0 255 0
0.042848 0.010417 -2.039216 0 255 0
0.043044 0.010417 -2.039216 0 255 0
0.043241 0.010417 -2.039216 0 255 0
0.043438 0.010417 -2.039216 0 255 0
0.043634 0.010417 -2.039216 0 255 0
0.043831 0.010417 -2.039216 0 255 0
0.044027 0.010417 -2.039216 0 255 0
0.044224 0.010417 -2.039216 0 255 0
0.044420 0.010417 -2.039216 0 255 0
0.044617 0.010417 -2.039216 0 255 0
0.044813 0.010417 -2.039216 0 255 0
0.045010 0.010417 -2.039216 0 255 0
0.045207 0.010417 -2.039216 0 255 0
0.045403 0.010417 -2.039216 0 255 0
0.045600 0.010417 -2.039216 0 255 0
0.045796 0.010417 -2.039216 0 255 0
0.045993 0.010417 -2.039216 0 255 0
0.046189 0.010417 -2.039216 0 255 0
0.046386 0.010417 -2.039216 0 255 0
0.046582 0.010417 -2.039216 0 255 0
0.046779 0.010417 -2.039216 0 255 0
0.046975 0.010417 -2.039216 0 255 0
0.047172 0.010417 -2.039216 0 255 0
0.047369 0.010417 -2.039216 0 255 0
0.047565 0.010417 -2.039216 0 255 0
0.047762 0.010417 -2.039216 0 255 0
0.047958 0.010417 -2.039216 0 255 0
0.048155 0.010417 -2.039216 0 255 0
0.048351 0.010417 -2.039216 0 255 0
0.048548 0.010417 -2.039216 0 255 0
7.768643 2.706495 -12.000000 0 255 0
7.818763 2.706495 -12.000000 0 255 0
7.868884 2.706495 -12.000000 0 255 0
7.919003 2.706495 -12.000000 0 255 0
7.969124 2.706495 -12.000000 0 255 0
8.019244 2.706495 -12.000000 0 255 0
8.069365 2.706495 -12.000000 0 255 0
8.119485 2.706495 -12.000000 0 255 0
8.169605 2.706495 -12.000000 0 255 0
8.219725 2.706495 -12.000000 0 255 0
8.269846 2.706495 -12.000000 0 255 0
8.319966 2.706495 -12.000000 0 255 0
8.370086 2.706495 -12.000000 0 255 0
4.210103 1.353247 -7.000000 0 255 0
4.235164 1.353247 -7.000000 0 255 0
4.260223 1.353247 -7.000000 0 255 0
4.285284 1.353247 -7.000000 0 255 0
4.310344 1.353247 -7.000000 0 255 0
4.335404 1.353247 -7.000000 0 255 0
4.360464 1.353247 -7.000000 0 255 0
4.385524 1.353247 -7.000000 0 255 0
4.410584 1.353247 -7.000000 0 255 0
4.435645 1.353247 -7.000000 0 255 0
4.460704 1.353247 -7.000000 0 255 0
4.485765 1.353247 -7.000000 0 255 0
4.510825 1.353247 -7.000000 0 255 0
3.023923 0.902165 -5.333333 0 255 0
3.040630 0.902165 -5.333333 0 255 0
3.057337 0.902165 -5.333333 0 255 0
1.934643 0.541299 -4.000000 0 255 0
1.620556 0.451082 -3.666667 0 255 0
1.628909 0.451082 -3.666667 0 255 0
1.403368 0.386642 -3.428571 0 255 0
1.410528 0.386642 -3.428571 0 255 0
1.240477 0.338312 -3.250000 0 255 0
1.108215 0.300722 -3.111111 0 255 0
1.002406 0.270649 -3.000000 0 255 0
0.839515 0.225541 -2.833333 0 255 0
0.723164 0.193321 -2.714286 0 255 0
0.598495 0.159206 -2.588235 0 255 0
0.486883 0.128881 -2.476190 0 255 0
0.366952 0.096661 -2.357143 0 255 0
0.251824 0.066012 -2.243902 0 255 0
0.133012 0.034699 -2.128205 0 255 0
0.040882 0.010614 -2.039216 0 255 0
0.041079 0.010614 -2.039216 0 255 0
0.041276 0.010614 -2.039216 0 255 0
0.041472 0.010614 -2.039216 0 255 0
0.041669 0.010614 -2.039216 0 255 0
0.041865 0.010614 -2.039216 0 255 0
0.042062 0.010614 -2.039216 0 255 0
0.042258 0.010614 -2.039216 0 255 0
0.042455 0.010614 -2.039216 0 255 0
0.042651 0.010614 -2.039216 0 255 0
0.042848 0.010614 -2.039216 0 255 0
0.043044 0.010614 -2.039216 0 255 0
0.043241 0.010614 -2.039216 0 255 0
0.043438 0.010614 -2.039216 0 255 0
0.043634 0.010614 -2.039216 0 255 0
0.043831 0.010614 -2.039216 0 255 0
0.044027 0.010614 -2.039216 0 255 0
0.044224 0.010614 -2.039216 0 255 0
0.044420 0.010614 -2.039216 0 255 0
0.044617 0.010614 -2.039216 0 255 0
0.044813 0.010614 -2.039216 0 255 0
0.045010 0.010614 -2.039216 0 255 0
0.045207 0.010614 -2.039216 0 255 0
0.045403 0.010614 -2.039216 0 255 0
0.045600 0.010614 -2.039216 0 255 0
0.045796 0.010614 -2.039216 0 255 0
0.045993 0.010614 -2.039216 0 255 0
0.046189 0.010614 -2.039216 0 255 0
0.046386 0.010614 -2.039216 0 255 0
0.046582 0.010614 -2.039216 0 255 0
0.046779 0.010614 -2.039216 0 255 0
0.046975 0.010614 -2.039216 0 255 0
0.047172 0.010614 -2.039216 0 255 0
0.047369 0.010614 -2.039216 0 255 0
0.047565 0.010614 -2.039216 0 255 0
0.047762 0.010614 -2.039216 0 255 0
0.047958 0.010614 -2.039216 0 255 0
0.048155 0.010614 -2.039216 0 255 0
0.048351 0.010614 -2.039216 0 255 0
7.768643 2.756615 -12.000000 0 255 0
7.818763 2.756615 -12.000000 0 255 0
7.868884 2.756615 -12.000000 0 255 0
7.919003 2.756615 -12.000000 0 255 0
7.969124 2.756615 -12.000000 0 255 0
8.019244 2.756615 -12.000000 0 255 0
8.069365 2.756615 -12.000000 0 255 0
8.119485 2.756615 -12.000000 0 255 0
8.169605 2.756615 -12.000000 0 255 0
8.219725 2.756615 -12.000000 0 255 0
8.269846 2.756615 -12.000000 0 255 0
8.319966 2.756615 -12.000000 0 255 0
8.370086 2.756615 -12.000000 0 255 0
8.420206 2.756615 -12.000000 0 255 0
8.470327 2.756615 -12.000000 0 255 0
8.520447 2.756615 -12.000000 0 255 0
4.285284 1.378308 -7.000000 0 255 0
4.310344 1.378308 -7.000000 0 255 0
4.335404 1.378308 -7.000000 0 255 0
4.360464 1.378308 -7.000000 0 255 0
4.385524 1.378308 -7.000000 0 255 0
4.410584 1.378308 -7.000000 0 255 0
4.435645 1.378308 -7.000000 0 255 0
4.460704 1.378308 -7.000000 0 255 0
4.485765 1.378308 -7.000000 0 255 0
4.510825 1.378308 -7.000000 0 255 0
1.954691 0.551323 -4.000000 0 255 0
1.964715 0.551323 -4.000000 0 255 0
1.645616 0.459436 -3.666667 0 255 0
1.653969 0.459436 -3.666667 0 255 0
1.424848 0.393802 -3.428571 0 255 0
1.432008 0.393802 -3.428571 0 255 0
1.259272 0.344577 -3.250000 0 255 0
1.124922 0.306291 -3.111111 0 255 0
1.017442 0.275662 -3.000000 0 255 0
0.852045 0.229718 -2.833333 0 255 0
0.733904 0.196901 -2.714286 0 255 0
0.607340 0.162154 -2.588235 0 255 0
0.494043 0.131267 -2.476190 0 255 0
0.372322 0.098451 -2.357143 0 255 0
0.255491 0.067235 -2.243902 0 255 0
0.138490 0.036271 -2.131579 0 255 0
0.041472 0.010810 -2.039216 0 255 0
0.041669 0.010810 -2.039216 0 255 0
0.041865 0.010810 -2.039216 0 255 0
0.042062 0.010810 -2.039216 0 255 0
0.042258 0.010810 -2.039216 0 255 0
0.042455 0.010810 -2.039216 0 255 0
0.042651 0.010810 -2.039216 0 255 0
0.042848 0.010810 -2.039216 0 255 0
0.043044 0.010810 -2.039216 0 255 0
0.043241 0.010810 -2.039216 0 255 0
0.043438 0.010810 -2.039216 0 255 0
0.043634 0.010810 -2.039216 0 255 0
0.043831 0.010810 -2.039216 0 255 0
0.044027 0.010810 -2.039216 0 255 0
0.044224 0.010810 -2.039216 0 255 0
0.044420 0.010810 -2.039216 0 255 0
0.044617 0.010810 -2.039216 0 255 0
0.044813 0.010810 -2.039216 0 255 0
0.045010 0.010810 -2.039216 0 255 0
0.045207 0.010810 -2.039216 0 255 0
0.045403 0.010810 -2.039216 0 255 0
0.045600 0.010810 -2.039216 0 255 0
0.045796 0.010810 -2.039216 0 255 0
0.045993 0.010810 -2.039216 0 255 0
0.046189 0.010810 -2.039216 0 255 0
0.046386 0.010810 -2.039216 0 255 0
0.046582 0.010810 -2.039216 0 255 0
0.046779 0.010810 -2.039216 0 255 0
0.046975 0.010810 -2.039216 0 255 0
0.047172 0.010810 -2.039216 0 255 0
0.047369 0.010810 -2.039216 0 255 0
0.047565 0.010810 -2.039216 0 255 0
0.047762 0.010810 -2.039216 0 255 0
0.047958 0.010810 -2.039216 0 255 0
0.048155 0.010810 -2.039216 0 255 0
7.768643 2.806736 -12.000000 0 255 0
7.818763 2.806736 -12.000000 0 255 0
7.868884 2.806736 -12.000000 0 255 0
7.919003 2.806736 -12.000000 0 255 0
7.969124 2.806736 -12.000000 0 255 0
8.019244 2.806736 -12.000000 0 255 0
8.069365 2.806736 -12.000000 0 255 0
8.119485 2.806736 -12.000000 0 255 0
8.169605 2.806736 -12.000000 0 255 0
8.219725 2.806736 -12.000000 0 255 0
8.269846 2.806736 -12.000000 0 255 0
8.319966 2.806736 -12.000000 0 255 0
8.370086 2.806736 -12.000000 0 255 0
8.420206 2.806736 -12.000000 0 255 0
8.470327 2.806736 -12.000000 0 255 0
8.520447 2.806736 -12.000000 0 255 0
8.570567 2.806736 -12.000000 0 255 0
8.620687 2.806736 -12.000000 0 255 0
8.670808 2.806736 -12.000000 0 255 0
4.360464 1.403368 -7.000000 0 255 0
4.385524 1.403368 -7.000000 0 255 0
4.410584 1.403368 -7.000000 0 255 0
4.435645 1.403368 -7.000000 0 255 0
4.460704 1.403368 -7.000000 0 255 0
1.974739 0.561347 -4.000000 0 255 0
1.984763 0.561347 -4.000000 0 255 0
1.994787 0.561347 -4.000000 0 255 0
1.670676 0.467789 -3.666667 0 255 0
1.679029 0.467789 -3.666667 0 255 0
1.446328 0.400962 -3.428571 0 255 0
1.453488 0.400962 -3.428571 0 255 0
1.278067 0.350842 -3.250000 0 255 0
1.141629 0.311859 -3.111111 0 255 0
1.032478 0.280674 -3.000000 0 255 0
0.864575 0.233895 -2.833333 0 255 0
0.744644 0.200481 -2.714286 0 255 0
0.616185 0.165102 -2.588235 0 255 0
0.501203 0.133654 -2.476190 0 255 0
0.377692 0.100241 -2.357143 0 255 0
0.259158 0.068457 -2.243902 0 255 0
0.144265 0.037929 -2.135135 0 255 0
0.042062 0.011007 -2.039216 0 255 0
0.042258 0.011007 -2.039216 0 255 0
0.042455 0.011007 -2.039216 0 255 0
0.042651 0.011007 -2.039216 0 255 0
0.042848 0.011007 -2.039216 0 255 0
0.043044 0.011007 -2.039216 0 255 0
0.043241 0.011007 -2.039216 0 255 0
0.043438 0.011007 -2.039216 0 255 0
0.043634 0.011007 -2.039216 0 255 0
0.043831 0.011007 -2.039216 0 255 0
0.044027 0.011007 -2.039216 0 255 0
0.044224 0.011007 -2.039216 0 255 0
0.044420 0.011007 -2.039216 0 255 0
0.044617 0.011007 -2.039216 0 255 0
0.044813 0.011007 -2.039216 0 255 0
0.045010 0.011007 -2.039216 0 255 0
0.045207 0.011007 -2.039216 0 255 0
0.045403 0.011007 -2.039216 0 255 0
0.045600 0.011007 -2.039216 0 255 0
0.045796 0.011007 -2.039216 0 255 0
0.045993 0.011007 -2.039216 0 255 0
0.046189 0.011007 -2.039216 0 255 0
0.046386 0.011007 -2.039216 0 255 0
0.046582 0.011007 -2.039216 0 255 0
0.046779 0.011007 -2.039216 0 255 0
0.046975 0.011007 -2.039216 0 255 0
0.047172 0.011007 -2.039216 0 255 0
0.047369 0.011007 -2.039216 0 255 0
0.047565 0.011007 -2.039216 0 255 0
0.047762 0.011007 -2.039216 0 255 0
0.047958 0.011007 -2.039216 0 255 0
0.048155 0.011007 -2.039216 0 255 0
7.718523 2.856856 -12.000000 0 255 0
7.768643 2.856856 -12.000000 0 255 0
7.818763 2.856856 -12.000000 0 255 0
7.868884 2.856856 -12.000000 0 255 0
7.919003 2.856856 -12.000000 0 255 0
7.969124 2.856856 -12.000000 0 255 0
8.019244 2.856856 -12.000000 0 255 0
8.069365 2.856856 -12.000000 0 255 0
8.119485 2.856856 -12.000000 0 255 0
8.169605 2.856856 -12.000000 0 255 0
8.219725 2.856856 -12.000000 0 255 0
8.269846 2.856856 -12.000000 0 255 0
8.319966 2.856856 -12.000000 0 255 0
8.370086 2.856856 -12.000000 0 255 0
8.420206 2.856856 -12.000000 0 255 0
8.470327 2.856856 -12.000000 0 255 0
8.520447 2.856856 -12.000000 0 255 0
8.570567 2.856856 -12.000000 0 255 0
8.620687 2.856856 -12.000000 0 255 0
8.670808 2.856856 -12.000000 0 255 0
8.720928 2.856856 -12.000000 0 255 0
8.771048 2.856856 -12.000000 0 255 0
8.821169 2.856856 -12.000000 0 255 0
4.435645 1.428428 -7.000000 0 255 0
2.493484 0.714214 -4.500000 0 255 0
2.004811 0.571371 -4.000000 0 255 0
2.014835 0.571371 -4.000000 0 255 0
2.024859 0.571371 -4.000000 0 255 0
1.695736 0.476143 -3.666667 0 255 0
1.704089 0.476143 -3.666667 0 255 0
1.467808 0.408122 -3.428571 0 255 0
1.474968 0.408122 -3.428571 0 255 0
1.296862 0.357107 -3.250000 0 255 0
1.158335 0.317428 -3.111111 0 255 0
0.952285 0.259714 -2.909091 0 255 0
0.877105 0.238071 -2.833333 0 255 0
0.755384 0.204061 -2.714286 0 255 0
0.625029 0.168050 -2.588235 0 255 0
0.508363 0.136041 -2.476190 0 255 0
0.383062 0.102031 -2.357143 0 255 0
0.269396 0.071421 -2.250000 0 255 0
0.148301 0.039135 -2.136986 0 255 0
0.042651 0.011203 -2.039216 0 255 0
0.042848 0.011203 -2.039216 0 255 0
0.043044 0.011203 -2.039216 0 255 0
0.043241 0.011203 -2.039216 0 255 0
0.043438 0.011203 -2.039216 0 255 0
0.043634 0.011203 -2.039216 0 255 0
0.043831 0.011203 -2.039216 0 255 0
0.044027 0.011203 -2.039216 0 255 0
0.044224 0.011203 -2.039216 0 255 0
0.044420 0.011203 -2.039216 0 255 0
0.044617 0.011203 -2.039216 0 255 0
0.044813 0.011203 -2.039216 0 255 0
0.045010 0.011203 -2.039216 0 255 0
0.045207 0.011203 -2.039216 0 255 0
0.045403 0.011203 -2.039216 0 255 0
0.045600 0.011203 -2.039216 0 255 0
0.045796 0.011203 -2.039216 0 255 0
0.045993 0.011203 -2.039216 0 255 0
0.046189 0.011203 -2.039216 0 255 0
0.046386 0.011203 -2.039216 0 255 0
0.046582 0.011203 -2.039216 0 255 0
0.046779 0.011203 -2.039216 0 255 0
0.046975 0.011203 -2.039216 0 255 0
0.047172 0.011203 -2.039216 0 255 0
0.047369 0.011203 -2.039216 0 255 0
0.047565 0.011203 -2.039216 0 255 0
0.047762 0.011203 -2.039216 0 255 0
0.047958 0.011203 -2.039216 0 255 0
7.718523 2.906976 -12.000000 0 255 0
7.768643 2.906976 -12.000000 0 255 0
7.818763 2.906976 -12.000000 0 255 0
7.868884 2.906976 -12.000000 0 255 0
7.919003 2.906976 -12.000000 0 255 0
7.969124 2.906976 -12.000000 0 255 0
8.019244 2.906976 -12.000000 0 255 0
8.069365 2.906976 -12.000000 0 255 0
8.119485 2.906976 -12.000000 0 255 0
8.169605 2.906976 -12.000000 0 255 0
8.219725 2.906976 -12.000000 0 255 0
8.269846 2.906976 -12.000000 0 255 0
8.319966 2.906976 -12.000000 0 255 0
8.370086 2.906976 -12.000000 0 255 0
8.420206 2.906976 -12.000000 0 255 0
8.470327 2.906976 -12.000000 0 255 0
8.520447 2.906976 -12.000000 0 255 0
8.570567 2.906976 -12.000000 0 255 0
8.620687 2.906976 -12.000000 0 255 0
8.670808 2.906976 -12.000000 0 255 0
8.720928 2.906976 -12.000000 0 255 0
8.771048 2.906976 -12.000000 0 255 0
8.821169 2.906976 -12.000000 0 255 0
2.506014 0.726744 -4.500000 0 255 0
2.518544 0.726744 -4.500000 0 255 0
2.531074 0.726744 -4.500000 0 255 0
2.034883 0.581395 -4.000000 0 255 0
2.044907 0.581395 -4.000000 0 255 0
2.054931 0.581395 -4.000000 0 255 0
1.720796 0.484496 -3.666667 0 255 0
1.729149 0.484496 -3.666667 0 255 0
1.489288 0.415282 -3.428571 0 255 0
1.309392 0.363372 -3.250000 0 255 0
1.315657 0.363372 -3.250000 0 255 0
1.175042 0.322997 -3.111111 0 255 0
0.965954 0.264271 -2.909091 0 255 0
0.889635 0.242248 -2.833333 0 255 0
0.766124 0.207641 -2.714286 0 255 0
0.633874 0.170999 -2.588235 0 255 0
0.515523 0.138427 -2.476190 0 255 0
0.388432 0.103821 -2.357143 0 255 0
0.273156 0.072674 -2.250000 0 255 0
0.152449 0.040375 -2.138889 0 255 0
0.043241 0.011400 -2.039216 0 255 0
0.043438 0.011400 -2.039216 0 255 0
0.043634 0.011400 -2.039216 0 255 0
0.043831 0.011400 -2.039216 0 255 0
0.044027 0.011400 -2.039216 0 255 0
0.044224 0.011400 -2.039216 0 255 0
0.044420 0.011400 -2.039216 0 255 0
0.044617 0.011400 -2.039216 0 255 0
0.044813 0.011400 -2.039216 0 255 0
0.045010 0.011400 -2.039216 0 255 0
0.045207 0.011400 -2.039216 0 255 0
0.045403 0.011400 -2.039216 0 255 0
0.045600 0.011400 -2.039216 0 255 0
0.045796 0.011400 -2.039216 0 255 0
0.045993 0.011400 -2.039216 0 255 0
0.046189 0.011400 -2.039216 0 255 0
0.046386 0.011400 -2.039216 0 255 0
0.046582 0.011400 -2.039216 0 255 0
0.046779 0.011400 -2.039216 0 255 0
0.046975 0.011400 -2.039216 0 255 0
0.047172 0.011400 -2.039216 0 255 0
0.047369 0.011400 -2.039216 0 255 0
0.047565 0.011400 -2.039216 0 255 0
0.047762 0.011400 -2.039216 0 255 0
7.718523 2.957096 -12.000000 0 255 0
7.768643 2.957096 -12.000000 0 255 0
7.818763 2.957096 -12.000000 0 255 0
7.868884 2.957096 -12.000000 0 255 0
7.919003 2.957096 -12.000000 0 255 0
7.969124 2.957096 -12.000000 0 255 0
8.019244 2.957096 -12.000000 0 255 0
8.069365 2.957096 -12.000000 0 255 0
8.119485 2.957096 -12.000000 0 255 0
8.169605 2.957096 -12.000000 0 255 0
8.219725 2.957096 -12.000000 0 255 0
8.269846 2.957096 -12.000000 0 255 0
8.319966 2.957096 -12.000000 0 255 0
8.370086 2.957096 -12.000000 0 255 0
8.420206 2.957096 -12.000000 0 255 0
8.470327 2.957096 -12.000000 0 255 0
8.520447 2.957096 -12.000000 0 255 0
8.570567 2.957096 -12.000000 0 255 0
8.620687 2.957096 -12.000000 0 255 0
8.670808 2.957096 -12.000000 0 255 0
8.720928 2.957096 -12.000000 0 255 0
8.771048 2.957096 -12.000000 0 255 0
3.358058 0.985699 -5.333333 0 255 0
2.531074 0.739274 -4.500000 0 255 0
2.543604 0.739274 -4.500000 0 255 0
2.556134 0.739274 -4.500000 0 255 0
2.568664 0.739274 -4.500000 0 255 0
2.064955 0.591419 -4.000000 0 255 0
2.074979 0.591419 -4.000000 0 255 0
2.085004 0.591419 -4.000000 0 255 0
1.745856 0.492849 -3.666667 0 255 0
1.754210 0.492849 -3.666667 0 255 0
1.510768 0.422442 -3.428571 0 255 0
1.328187 0.369637 -3.250000 0 255 0
1.334452 0.369637 -3.250000 0 255 0
1.191749 0.328566 -3.111111 0 255 0
0.979624 0.268827 -2.909091 0 255 0
0.902165 0.246425 -2.833333 0 255 0
0.776864 0.211221 -2.714286 0 255 0
0.642719 0.173947 -2.588235 0 255 0
0.522683 0.140814 -2.476190 0 255 0
0.393802 0.105611 -2.357143 0 255 0
0.276915 0.073927 -2.250000 0 255 0
0.156714 0.041649 -2.140845 0 255 0
0.043831 0.011596 -2.039216 0 255 0
0.044027 0.011596 -2.039216 0 255 0
0.044224 0.011596 -2.039216 0 255 0
0.044420 0.011596 -2.039216 0 255 0
0.044617 0.011596 -2.039216 0 255 0
0.044813 0.011596 -2.039216 0 255 0
0.045010 0.011596 -2.039216 0 255 0
0.045207 0.011596 -2.039216 0 255 0
0.045403 0.011596 -2.039216 0 255 0
0.045600 0.011596 -2.039216 0 255 0
0.045796 0.011596 -2.039216 0 255 0
0.045993 0.011596 -2.039216 0 255 0
0.046189 0.011596 -2.039216 0 255 0
0.046386 0.011596 -2.039216 0 255 0
0.046582 0.011596 -2.039216 0 255 0
0.046779 0.011596 -2.039216 0 255 0
0.046975 0.011596 -2.039216 0 255 0
0.047172 0.011596 -2.039216 0 255 0
0.047369 0.011596 -2.039216 0 255 0
0.047565 0.011596 -2.039216 0 255 0
0.047762 0.011596 -2.039216 0 255 0
7.668402 3.007217 -12.000000 0 255 0
7.718523 3.007217 -12.000000 0 255 0
7.768643 3.007217 -12.000000 0 255 0
7.818763 3.007217 -12.000000 0 255 0
7.868884 3.007217 -12.000000 0 255 0
7.919003 3.007217 -12.000000 0 255 0
7.969124 3.007217 -12.000000 0 255 0
8.019244 3.007217 -12.000000 0 255 0
8.069365 3.007217 -12.000000 0 255 0
8.119485 3.007217 -12.000000 0 255 0
8.169605 3.007217 -12.000000 0 255 0
8.219725 3.007217 -12.000000 0 255 0
8.269846 3.007217 -12.000000 0 255 0
8.319966 3.007217 -12.000000 0 255 0
8.370086 3.007217 -12.000000 0 255 0
8.420206 3.007217 -12.000000 0 255 0
8.470327 3.007217 -12.000000 0 255 0
8.520447 3.007217 -12.000000 0 255 0
8.570567 3.007217 -12.000000 0 255 0
8.620687 3.007217 -12.000000 0 255 0
8.670808 3.007217 -12.000000 0 255 0
8.720928 3.007217 -12.000000 0 255 0
3.358058 1.002406 -5.333333 0 255 0
3.374765 1.002406 -5.333333 0 255 0
3.391472 1.002406 -5.333333 0 255 0
3.408179 1.002406 -5.333333 0 255 0
2.568664 0.751804 -4.500000 0 255 0
2.581194 0.751804 -4.500000 0 255 0
2.593724 0.751804 -4.500000 0 255 0
2.606254 0.751804 -4.500000 0 255 0
2.095028 0.601443 -4.000000 0 255 0
2.105052 0.601443 -4.000000 0 255 0
2.115076 0.601443 -4.000000 0 255 0
1.770916 0.501203 -3.666667 0 255 0
1.779270 0.501203 -3.666667 0 255 0
1.532248 0.429602 -3.428571 0 255 0
1.346982 0.375902 -3.250000 0 255 0
1.353247 0.375902 -3.250000 0 255 0
1.208456 0.334135 -3.111111 0 255 0
0.993293 0.273383 -2.909091 0 255 0
0.914695 0.250601 -2.833333 0 255 0
0.787604 0.214801 -2.714286 0 255 0
0.651564 0.176895 -2.588235 0 255 0
0.529843 0.143201 -2.476190 0 255 0
0.399172 0.107401 -2.357143 0 255 0
0.280674 0.075180 -2.250000 0 255 0
0.163436 0.043583 -2.144928 0 255 0
0.044420 0.011793 -2.039216 0 255 0
0.044617 0.011793 -2.039216 0 255 0
0.044813 0.011793 -2.039216 0 255 0
0.045010 0.011793 -2.039216 0 255 0
0.045207 0.011793 -2.039216 0 255 0
0.045403 0.011793 -2.039216 0 255 0
0.045600 0.011793 -2.039216 0 255 0
0.045796 0.011793 -2.039216 0 255 0
0.045993 0.011793 -2.039216 0 255 0
0.046189 0.011793 -2.039216 0 255 0
0.046386 0.011793 -2.039216 0 255 0
0.046582 0.011793 -2.039216 0 255 0
0.046779 0.011793 -2.039216 0 255 0
0.046975 0.011793 -2.039216 0 255 0
0.047172 0.011793 -2.039216 0 255 0
0.047369 0.011793 -2.039216 0 255 0
0.047565 0.011793 -2.039216 0 255 0
7.618282 3.057337 -12.000000 0 255 0
7.668402 3.057337 -12.000000 0 255 0
7.718523 3.057337 -12.000000 0 255 0
7.768643 3.057337 -12.000000 0 255 0
7.818763 3.057337 -12.000000 0 255 0
7.868884 3.057337 -12.000000 0 255 0
7.919003 3.057337 -12.000000 0 255 0
7.969124 3.057337 -12.000000 0 255 0
8.019244 3.057337 -12.000000 0 255 0
8.069365 3.057337 -12.000000 0 255 0
8.119485 3.057337 -12.000000 0 255 0
8.169605 3.057337 -12.000000 0 255 0
8.219725 3.057337 -12.000000 0 255 0
8.269846 3.057337 -12.000000 0 255 0
8.319966 3.057337 -12.000000 0 255 0
8.370086 3.057337 -12.000000 0 255 0
8.420206 3.057337 -12.000000 0 255 0
8.470327 3.057337 -12.000000 0 255 0
8.520447 3.057337 -12.000000 0 255 0
8.570567 3.057337 -12.000000 0 255 0
8.620687 3.057337 -12.000000 0 255 0
8.670808 3.057337 -12.000000 0 255 0
3.374765 1.019112 -5.333333 0 255 0
3.391472 1.019112 -5.333333 0 255 0
3.408179 1.019112 -5.333333 0 255 0
3.424886 1.019112 -5.333333 0 255 0
3.441592 1.019112 -5.333333 0 255 0
2.593724 0.764334 -4.500000 0 255 0
2.606254 0.764334 -4.500000 0 255 0
2.618784 0.764334 -4.500000 0 255 0
2.631315 0.764334 -4.500000 0 255 0
2.643845 0.764334 -4.500000 0 255 0
2.125100 0.611467 -4.000000 0 255 0
2.135124 0.611467 -4.000000 0 255 0
2.145148 0.611467 -4.000000 0 255 0
1.795977 0.509556 -3.666667 0 255 0
1.804330 0.509556 -3.666667 0 255 0
1.553729 0.436762 -3.428571 0 255 0
1.365777 0.382167 -3.250000 0 255 0
1.219593 0.339704 -3.111111 0 255 0
1.102646 0.305734 -3.000000 0 255 0
1.006962 0.277940 -2.909091 0 255 0
0.927225 0.254778 -2.833333 0 255 0
0.798344 0.218381 -2.714286 0 255 0
0.660408 0.179843 -2.588235 0 255 0
0.537003 0.145587 -2.476190 0 255 0
0.404542 0.109191 -2.357143 0 255 0
0.284433 0.076433 -2.250000 0 255 0
0.168050 0.044961 -2.147059 0 255 0
0.048841 0.013010 -2.042553 0 255 0
0.045207 0.011990 -2.039216 0 255 0
0.045403 0.011990 -2.039216 0 255 0
0.045600 0.011990 -2.039216 0 255 0
0.045796 0.011990 -2.039216 0 255 0
0.045993 0.011990 -2.039216 0 255 0
0.046189 0.011990 -2.039216 0 255 0
0.046386 0.011990 -2.039216 0 255 0
0.046582 0.011990 -2.039216 0 255 0
0.046779 0.011990 -2.039216 0 255 0
0.046975 0.011990 -2.039216 0 255 0
0.047172 0.011990 -2.039216 0 255 0
0.047369 0.011990 -2.039216 0 255 0
0.047565 0.011990 -2.039216 0 255 0
7.768643 3.107457 -12.000000 0 255 0
7.818763 3.107457 -12.000000 0 255 0
7.868884 3.107457 -12.000000 0 255 0
7.919003 3.107457 -12.000000 0 255 0
7.969124 3.107457 -12.000000 0 255 0
8.019244 3.107457 -12.000000 0 255 0
8.069365 3.107457 -12.000000 0 255 0
